ncols         407
nrows         26
xllcorner     389043.952367
yllcorner     7585525.48762
cellsize      5
NODATA_value  -9999
1293.76 1293.214 1292.869 1292.679 1292.449 1292.269 1292.15 1292.155 1292.052 1291.732 1291.37 1290.863 1290.273 1289.417 1288.537 1287.692 1286.973 1286.328 1285.658 1284.97 1284.316 1283.724 1283.175 1282.615 1282.033 1281.406 1280.743 1280.071 1279.401 1278.76 1278.116 1277.461 -9999 -9999 -9999 -9999 -9999 -9999 -9999 -9999 -9999 -9999 -9999 -9999 -9999 -9999 -9999 -9999 1266.648 1266.15 1265.622 1265.06 1264.5 1263.922 1263.372 1262.845 1262.373 1261.926 1261.5 1261.056 1260.548 1259.97 1259.314 1258.58 1257.744 1256.813 1255.807 1254.763 1253.754 1252.812 1251.953 1251.119 1250.303 1249.498 1248.708 1247.936 1247.163 1246.428 1245.831 1245.474 1245.327 1245.263 1245.173 1245.033 1244.844 1244.621 1244.367 1244.08 1243.726 1243.297 1242.762 1242.107 1241.301 1240.36 1239.33 1238.265 1237.231 1236.205 1235.2 1234.163 1233.097 1231.883 1230.464 1229.033 1227.658 1226.396 1225.04 1223.634 1222.205 1220.775 1219.267 1217.732 1216.189 1214.733 1213.341 1212.06 1210.882 1209.854 1208.951 1208.135 1207.217 1206.218 1205.117 1204.008 1202.84 1201.624 1200.342 1198.903 1197.318 1195.6 1193.886 1192.196 1190.535 1188.88 1187.244 1185.654 1184.157 1182.688 1181.251 1179.804 1178.416 1177.075 1175.784 1174.568 1173.448 1172.382 1171.327 1170.256 1169.198 1168.147 1167.09 1165.939 1164.77 1163.589 1162.504 1161.452 1160.435 1159.43 1158.439 1157.453 1156.469 1155.476 1154.498 1153.503 1152.537 1151.589 1150.697 1149.849 1149.034 1148.292 1147.61 1146.933 1146.187 1145.329 1144.465 1143.619 1142.963 1142.269 1141.538 1140.638 1139.755 1138.901 1137.99 1136.995 1136.017 1135.252 1134.718 1134.325 1133.771 1133.068 1132.213 1131.384 1130.58 1129.787 1129.005 1128.235 1127.482 1126.747 1126.026 1125.314 1124.635 1123.92 1123.182 1122.403 1121.676 1120.986 1120.318 1119.638 1118.962 1118.256 1117.533 1116.78 1116.016 1115.275 1114.549 1113.895 1113.276 1112.636 1112.009 1111.394 1110.828 1110.247 1109.613 1108.992 1108.328 1107.764 1107.255 1107.037 1106.889 1106.71 1106.318 1105.819 1105.316 1104.822 1104.341 1103.873 1103.408 1102.945 1102.485 1102.026 1101.564 1101.1 1100.635 1100.165 1099.68 1099.181 1098.667 1098.143 1097.612 1097.077 1096.548 1096.021 1095.522 1095.026 1094.534 1094.019 1093.506 1092.994 1092.48 1091.96 1091.435 1090.907 1090.381 1089.86 1089.309 1088.722 1088.101 1087.497 1086.915 1086.276 1085.559 1084.771 1084.067 1083.451 1082.911 1082.363 1081.803 1081.235 1080.681 1080.138 1079.583 1079.016 1078.446 1077.898 1077.358 1076.814 1076.264 1075.703 1075.13 1074.542 1073.935 1073.306 1072.656 1071.991 1071.313 1070.62 1069.9 1069.152 1068.391 1067.619 1066.847 1066.071 1065.294 1064.508 1063.717 1062.95 1062.251 1061.579 1060.905 1060.173 1059.421 1058.658 1057.903 1057.156 1056.416 1055.664 1054.9 1054.123 1053.346 1052.558 1051.752 1050.905 1050.015 1049.076 1048.096 1047.072 1046 1044.891 1043.776 1042.677 1041.593 1040.489 1039.392 1038.303 1037.26 1036.238 1035.23 1034.216 1033.198 1032.197 1031.222 1030.273 1029.336 1028.408 1027.485 1026.555 1025.605 1024.632 1023.613 1022.555 1021.47 1020.407 1019.374 1018.369 1017.37 1016.375 1015.393 1014.39 1013.367 1012.334 1011.336 1010.371 1009.414 1008.459 1007.503 1006.544 1005.586 1004.626 1003.663 1002.683 1001.68 1000.649 999.5901 998.5029 997.3149 996.0962 994.8405 993.6219 992.3286 990.9687 989.5474 988.1211 986.697 985.2138 983.7591 982.3467 981.0607 979.8167 978.6101 977.4269 976.2733 975.1624 974.0669 972.9722 971.8418 970.7175 969.5959 968.4978 967.4098 966.334 965.2274 964.0464 962.8192 961.6009 960.3846 959.1859 957.9901
1291.816 1291.33 1291.043 1290.936 1290.825 1290.649 1290.413 1290.169 1289.902 1289.583 1289.311 1288.956 1288.317 1287.491 1286.581 1285.836 1285.147 1284.521 1283.859 1283.206 1282.594 1281.998 1281.408 1280.777 1280.105 1279.386 1278.645 1277.891 1277.136 1276.397 1275.663 -9999 -9999 -9999 -9999 -9999 -9999 -9999 -9999 -9999 -9999 -9999 -9999 -9999 -9999 -9999 -9999 -9999 -9999 1262.831 1262.273 1261.722 1261.146 1260.586 1260.019 1259.487 1258.985 1258.534 1258.104 1257.653 1257.161 1256.607 1255.992 1255.271 1254.412 1253.411 1252.359 1251.318 1250.346 1249.44 1248.586 1247.759 1246.952 1246.163 1245.409 1244.684 1243.999 1243.378 1242.866 1242.499 1242.245 1242.063 1241.907 1241.737 1241.542 1241.309 1241.048 1240.733 1240.35 1239.877 1239.337 1238.701 1237.959 1237.072 1236.088 1235.068 1234.06 1233.076 1232.075 1231.05 1229.993 1228.844 1227.497 1226.088 1224.648 1223.324 1221.961 1220.636 1219.3 1217.904 1216.413 1214.838 1213.278 1211.753 1210.345 1209.082 1208.014 1207.113 1206.315 1205.499 1204.618 1203.653 1202.64 1201.566 1200.453 1199.301 1198.07 1196.741 1195.271 1193.697 1192.04 1190.412 1188.813 1187.253 1185.701 1184.182 1182.751 1181.345 1179.962 1178.55 1177.184 1175.893 1174.671 1173.518 1172.395 1171.309 1170.24 1169.192 1168.171 1167.163 1166.15 1165.061 1163.945 1162.817 1161.729 1160.674 1159.652 1158.66 1157.68 1156.703 1155.72 1154.726 1153.757 1152.764 1151.787 1150.848 1149.999 1149.189 1148.38 1147.586 1146.944 1146.311 1145.655 1144.87 1144.062 1143.256 1142.52 1141.765 1141.008 1140.157 1139.324 1138.556 1137.848 1137.043 1136.177 1135.401 1134.732 1134.231 1133.578 1132.912 1132.078 1131.268 1130.483 1129.72 1128.968 1128.228 1127.5 1126.788 1126.088 1125.396 1124.717 1124.044 1123.329 1122.58 1121.818 1121.109 1120.424 1119.743 1119.064 1118.402 1117.716 1117 1116.255 1115.543 1114.852 1114.178 1113.531 1112.86 1112.229 1111.609 1111.057 1110.489 1109.856 1109.203 1108.555 1107.976 1107.446 1107.228 1107.024 1106.811 1106.321 1105.827 1105.33 1104.83 1104.343 1103.869 1103.406 1102.945 1102.486 1102.026 1101.565 1101.101 1100.634 1100.162 1099.677 1099.184 1098.678 1098.157 1097.616 1097.071 1096.529 1095.995 1095.488 1094.986 1094.487 1093.967 1093.448 1092.928 1092.407 1091.885 1091.357 1090.829 1090.297 1089.771 1089.247 1088.693 1088.087 1087.435 1086.73 1085.997 1085.266 1084.575 1083.953 1083.366 1082.807 1082.242 1081.671 1081.117 1080.576 1080.047 1079.495 1078.934 1078.369 1077.819 1077.271 1076.719 1076.162 1075.598 1075.024 1074.435 1073.83 1073.204 1072.563 1071.909 1071.243 1070.566 1069.87 1069.149 1068.401 1067.631 1066.859 1066.077 1065.275 1064.465 1063.68 1062.945 1062.267 1061.597 1060.919 1060.205 1059.472 1058.725 1057.963 1057.21 1056.456 1055.701 1054.934 1054.163 1053.387 1052.6 1051.789 1050.943 1050.06 1049.138 1048.174 1047.158 1046.089 1045.015 1043.943 1042.889 1041.824 1040.735 1039.652 1038.581 1037.556 1036.551 1035.55 1034.542 1033.53 1032.525 1031.541 1030.577 1029.63 1028.692 1027.758 1026.82 1025.869 1024.9 1023.911 1022.891 1021.838 1020.764 1019.713 1018.693 1017.703 1016.725 1015.761 1014.766 1013.74 1012.702 1011.699 1010.73 1009.77 1008.824 1007.877 1006.928 1005.968 1005.008 1004.045 1003.079 1002.093 1001.082 1000.039 998.9683 997.8124 996.6177 995.3824 994.1457 992.8588 991.5045 990.1072 988.6769 987.2321 985.7222 984.2358 982.8071 981.5206 980.283 979.082 977.8745 976.6884 975.5355 974.424 973.3116 972.1465 970.9342 969.7202 968.5603 967.4399 966.3296 965.1991 963.9761 962.7108 961.4142 960.1254 958.8333 957.5527
1290.048 1289.61 1289.377 1289.35 1289.365 1289.211 1288.766 1288.263 1287.836 1287.547 1287.335 1286.923 1286.327 1285.535 1284.761 1284.024 1283.311 1282.649 1281.993 1281.382 1280.78 1280.202 1279.615 1278.958 1278.216 1277.385 1276.523 1275.655 1274.802 1273.976 1273.173 1272.397 1271.631 -9999 -9999 -9999 -9999 -9999 -9999 -9999 -9999 -9999 -9999 -9999 -9999 -9999 -9999 1260.743 1260.236 1259.673 1259.129 1258.518 1257.944 1257.383 1256.821 1256.254 1255.715 1255.235 1254.758 1254.262 1253.758 1253.226 1252.659 1251.957 1251.067 1250.015 1248.933 1247.917 1246.981 1246.1 1245.268 1244.467 1243.702 1242.962 1242.26 1241.596 1241.002 1240.481 1240.038 1239.651 1239.306 1239.019 1238.777 1238.569 1238.348 1238.11 1237.821 1237.479 1237.058 1236.574 1236.032 1235.413 1234.699 1233.856 1232.938 1231.982 1231.03 1230.067 1229.101 1228.058 1226.984 1225.856 1224.568 1223.227 1221.783 1220.463 1219.117 1217.844 1216.555 1215.166 1213.641 1212.031 1210.439 1208.868 1207.413 1206.183 1205.22 1204.445 1203.683 1202.898 1202.054 1201.186 1200.296 1199.345 1198.287 1197.127 1195.892 1194.62 1193.285 1191.859 1190.354 1188.777 1187.211 1185.683 1184.208 1182.762 1181.388 1180.038 1178.711 1177.359 1176.072 1174.849 1173.688 1172.554 1171.438 1170.342 1169.271 1168.232 1167.242 1166.264 1165.279 1164.225 1163.162 1162.086 1161.04 1159.981 1158.954 1157.956 1156.987 1156.015 1155.036 1154.048 1153.103 1152.128 1151.166 1150.241 1149.414 1148.641 1147.832 1147.029 1146.368 1145.742 1145.131 1144.397 1143.648 1142.845 1142.061 1141.281 1140.528 1139.731 1138.933 1138.25 1137.614 1136.966 1136.205 1135.407 1134.621 1134 1133.38 1132.749 1131.958 1131.167 1130.399 1129.654 1128.931 1128.22 1127.521 1126.832 1126.154 1125.482 1124.806 1124.135 1123.447 1122.722 1121.975 1121.237 1120.538 1119.845 1119.168 1118.5 1117.856 1117.179 1116.474 1115.779 1115.063 1114.364 1113.64 1112.998 1112.394 1111.824 1111.26 1110.702 1110.055 1109.413 1108.816 1108.316 1107.811 1107.454 1107.114 1106.796 1106.308 1105.824 1105.337 1104.847 1104.354 1103.875 1103.406 1102.976 1102.541 1102.102 1101.629 1101.154 1100.675 1100.19 1099.696 1099.196 1098.69 1098.17 1097.633 1097.075 1096.521 1095.972 1095.457 1094.947 1094.442 1093.915 1093.388 1092.862 1092.335 1091.807 1091.278 1090.751 1090.219 1089.689 1089.157 1088.626 1088.046 1087.344 1086.534 1085.695 1084.977 1084.37 1083.832 1083.287 1082.709 1082.125 1081.55 1081.011 1080.485 1079.947 1079.398 1078.839 1078.286 1077.736 1077.186 1076.628 1076.064 1075.496 1074.92 1074.332 1073.728 1073.109 1072.477 1071.831 1071.173 1070.503 1069.823 1069.127 1068.406 1067.651 1066.867 1066.071 1065.257 1064.453 1063.682 1062.961 1062.293 1061.617 1060.935 1060.219 1059.502 1058.771 1058.025 1057.256 1056.488 1055.719 1054.96 1054.197 1053.426 1052.638 1051.826 1050.984 1050.109 1049.193 1048.231 1047.218 1046.169 1045.127 1044.099 1043.075 1042.036 1040.963 1039.9 1038.848 1037.84 1036.834 1035.831 1034.828 1033.828 1032.832 1031.834 1030.858 1029.898 1028.958 1028.018 1027.074 1026.124 1025.16 1024.187 1023.197 1022.182 1021.134 1020.065 1019.023 1018.039 1017.078 1016.111 1015.077 1014.049 1013.029 1012.055 1011.093 1010.139 1009.199 1008.254 1007.309 1006.354 1005.396 1004.435 1003.473 1002.506 1001.523 1000.509 999.4542 998.3256 997.1555 995.9291 994.6783 993.372 992.0363 990.658 989.2283 987.7719 986.2294 984.7511 983.3217 982.0416 980.7889 979.5544 978.3224 977.1051 975.927 974.7851 973.6333 972.4261 971.1688 969.918 968.7208 967.5626 966.4073 965.2086 963.951 962.651 961.3446 960.0106 958.6638 957.3373
1288.47 1288.054 1287.863 1287.811 1287.772 1287.54 1287.069 1286.493 1286.023 1285.693 1285.31 1284.823 1284.158 1283.502 1282.788 1282.103 1281.377 1280.725 1280.056 1279.431 1278.796 1278.246 1277.718 1277.08 1276.277 1275.321 1274.326 1273.351 1272.411 1271.515 1270.655 1269.821 1268.99 1268.153 -9999 -9999 -9999 -9999 -9999 -9999 -9999 1261.701 1260.893 1260.123 1259.44 1258.84 1258.276 1257.738 1257.225 1256.715 1256.132 1255.493 1254.871 1254.316 1253.711 1253.099 1252.497 1251.97 1251.44 1250.895 1250.36 1249.823 1249.254 1248.543 1247.632 1246.578 1245.51 1244.531 1243.63 1242.793 1242.003 1241.258 1240.555 1239.874 1239.231 1238.643 1238.124 1237.665 1237.238 1236.836 1236.458 1236.103 1235.794 1235.512 1235.269 1234.999 1234.686 1234.299 1233.863 1233.373 1232.835 1232.213 1231.508 1230.716 1229.874 1228.995 1228.062 1227.112 1226.178 1225.177 1224.136 1222.929 1221.671 1220.361 1219.037 1217.746 1216.442 1215.203 1213.911 1212.499 1210.945 1209.339 1207.722 1206.093 1204.574 1203.363 1202.504 1201.819 1201.133 1200.401 1199.643 1198.873 1198.097 1197.261 1196.268 1195.101 1193.86 1192.609 1191.365 1190.082 1188.72 1187.269 1185.727 1184.22 1182.77 1181.393 1180.08 1178.779 1177.507 1176.24 1175.036 1173.892 1172.762 1171.661 1170.556 1169.48 1168.405 1167.377 1166.396 1165.439 1164.47 1163.443 1162.413 1161.392 1160.387 1159.367 1158.334 1157.331 1156.349 1155.387 1154.418 1153.463 1152.535 1151.597 1150.66 1149.774 1148.983 1148.22 1147.445 1146.631 1145.973 1145.316 1144.701 1143.944 1143.179 1142.385 1141.6 1140.825 1140.073 1139.328 1138.583 1137.966 1137.333 1136.689 1135.907 1135.141 1134.387 1133.784 1133.181 1132.581 1131.828 1131.075 1130.324 1129.597 1128.892 1128.208 1127.536 1126.875 1126.223 1125.575 1124.917 1124.247 1123.549 1122.835 1122.099 1121.365 1120.635 1119.934 1119.253 1118.595 1117.947 1117.313 1116.647 1115.993 1115.294 1114.572 1113.825 1113.106 1112.464 1111.855 1111.281 1110.692 1110.121 1109.55 1109.055 1108.583 1108.099 1107.658 1107.203 1106.784 1106.297 1105.815 1105.337 1104.857 1104.374 1103.888 1103.447 1103.04 1102.631 1102.18 1101.696 1101.21 1100.719 1100.224 1099.722 1099.217 1098.704 1098.184 1097.647 1097.093 1096.524 1095.961 1095.429 1094.911 1094.395 1093.861 1093.327 1092.794 1092.261 1091.729 1091.197 1090.674 1090.143 1089.612 1089.065 1088.523 1087.893 1087.158 1086.313 1085.521 1084.84 1084.273 1083.726 1083.171 1082.583 1082.011 1081.448 1080.92 1080.385 1079.84 1079.285 1078.737 1078.194 1077.653 1077.103 1076.542 1075.973 1075.399 1074.821 1074.235 1073.636 1073.023 1072.397 1071.757 1071.105 1070.441 1069.767 1069.085 1068.389 1067.667 1066.91 1066.108 1065.301 1064.474 1063.708 1062.978 1062.312 1061.632 1060.937 1060.225 1059.511 1058.796 1058.052 1057.288 1056.506 1055.743 1054.987 1054.231 1053.461 1052.672 1051.862 1051.026 1050.153 1049.237 1048.274 1047.276 1046.262 1045.251 1044.244 1043.239 1042.224 1041.184 1040.141 1039.108 1038.097 1037.089 1036.082 1035.085 1034.097 1033.106 1032.112 1031.121 1030.151 1029.201 1028.259 1027.317 1026.37 1025.41 1024.441 1023.466 1022.488 1021.48 1020.436 1019.393 1018.403 1017.446 1016.446 1015.399 1014.356 1013.364 1012.396 1011.44 1010.493 1009.56 1008.623 1007.683 1006.734 1005.784 1004.827 1003.872 1002.921 1001.969 1000.984 999.9479 998.8505 997.6976 996.4849 995.2191 993.9057 992.5611 991.1786 989.725 988.2459 986.7131 985.2698 983.8779 982.5972 981.3218 980.0601 978.7978 977.563 976.3537 975.1517 973.933 972.7014 971.4614 970.2302 968.9946 967.7798 966.5659 965.3092 964.0114 962.6934 961.3854 960.0529 958.6714 957.3062
1287.053 1286.648 1286.438 1286.321 1286.115 1285.789 1285.34 1284.828 1284.312 1283.796 1283.238 1282.596 1281.947 1281.302 1280.667 1279.976 1279.264 1278.588 1277.905 1277.243 1276.576 1276.021 1275.525 1274.914 1274.103 1273.09 1272.021 1270.976 1269.984 1269.029 1268.106 1267.197 1266.302 1265.41 1264.515 -9999 -9999 -9999 -9999 1260.401 1259.607 1258.8 1257.986 1257.236 1256.577 1255.959 1255.368 1254.805 1254.322 1253.811 1253.248 1252.579 1251.949 1251.326 1250.7 1250.027 1249.368 1248.758 1248.169 1247.588 1247.012 1246.422 1245.777 1245.015 1244.113 1243.108 1242.106 1241.18 1240.323 1239.53 1238.792 1238.143 1237.505 1236.897 1236.314 1235.806 1235.351 1234.899 1234.462 1234.046 1233.66 1233.291 1232.932 1232.605 1232.308 1231.995 1231.632 1231.217 1230.767 1230.281 1229.729 1229.102 1228.411 1227.668 1226.882 1226.044 1225.162 1224.262 1223.371 1222.401 1221.374 1220.187 1218.894 1217.575 1216.34 1215.216 1214.009 1212.719 1211.324 1209.884 1208.351 1206.777 1205.151 1203.52 1201.998 1200.832 1200.005 1199.387 1198.753 1198.094 1197.418 1196.729 1196.034 1195.256 1194.321 1193.172 1191.947 1190.725 1189.555 1188.361 1187.119 1185.787 1184.364 1182.911 1181.509 1180.173 1178.915 1177.664 1176.442 1175.226 1174.074 1172.949 1171.836 1170.76 1169.711 1168.678 1167.636 1166.609 1165.623 1164.654 1163.698 1162.712 1161.72 1160.732 1159.759 1158.775 1157.776 1156.768 1155.784 1154.818 1153.876 1152.959 1152.063 1151.167 1150.271 1149.425 1148.649 1147.911 1147.137 1146.351 1145.638 1144.96 1144.292 1143.533 1142.751 1141.952 1141.155 1140.385 1139.677 1138.979 1138.315 1137.686 1137.053 1136.385 1135.634 1134.899 1134.214 1133.676 1133.136 1132.55 1131.82 1131.089 1130.36 1129.611 1128.888 1128.19 1127.542 1126.907 1126.283 1125.663 1125.028 1124.36 1123.648 1122.917 1122.183 1121.454 1120.73 1120.011 1119.319 1118.648 1117.999 1117.36 1116.745 1116.142 1115.505 1114.806 1114.038 1113.29 1112.565 1111.916 1111.272 1110.682 1110.109 1109.612 1109.151 1108.731 1108.29 1107.816 1107.3 1106.785 1106.287 1105.806 1105.331 1104.859 1104.385 1103.94 1103.526 1103.142 1102.722 1102.26 1101.764 1101.267 1100.766 1100.261 1099.751 1099.235 1098.713 1098.186 1097.654 1097.106 1096.542 1095.963 1095.415 1094.875 1094.349 1093.805 1093.265 1092.726 1092.188 1091.651 1091.118 1090.595 1090.069 1089.535 1088.986 1088.357 1087.657 1086.882 1086.15 1085.457 1084.813 1084.193 1083.595 1083.032 1082.466 1081.913 1081.361 1080.821 1080.278 1079.727 1079.184 1078.647 1078.114 1077.574 1077.024 1076.463 1075.892 1075.314 1074.734 1074.15 1073.555 1072.946 1072.324 1071.688 1071.039 1070.38 1069.711 1069.034 1068.353 1067.663 1066.938 1066.174 1065.383 1064.57 1063.802 1063.046 1062.345 1061.632 1060.933 1060.224 1059.514 1058.782 1058.043 1057.27 1056.516 1055.758 1055.018 1054.262 1053.492 1052.705 1051.898 1051.065 1050.191 1049.273 1048.319 1047.349 1046.366 1045.372 1044.374 1043.376 1042.385 1041.376 1040.363 1039.341 1038.33 1037.321 1036.321 1035.329 1034.34 1033.356 1032.369 1031.386 1030.405 1029.441 1028.492 1027.553 1026.611 1025.651 1024.684 1023.714 1022.754 1021.784 1020.775 1019.762 1018.769 1017.802 1016.79 1015.732 1014.683 1013.683 1012.722 1011.772 1010.831 1009.898 1008.963 1008.025 1007.084 1006.143 1005.2 1004.261 1003.331 1002.408 1001.449 1000.443 999.3751 998.2497 997.0497 995.7773 994.4498 993.0762 991.6495 990.1736 988.7066 987.2492 985.8383 984.4648 983.1411 981.8448 980.5576 979.2827 978.0344 976.7841 975.5369 974.2672 973.0203 971.7965 970.5839 969.3517 968.0966 966.8405 965.5258 964.2043 962.862 961.5501 960.2201 958.8449 957.4621
1285.708 1285.304 1285.028 1284.766 1284.398 1283.996 1283.585 1283.113 1282.54 1281.86 1281.13 1280.395 1279.665 1278.959 1278.289 1277.633 1276.951 1276.262 1275.548 1274.863 1274.194 1273.611 1273.079 1272.448 1271.636 1270.632 1269.57 1268.522 1267.507 1266.503 1265.505 1264.518 1263.56 1262.628 1261.711 1260.813 1259.945 1259.115 1258.299 1257.5 1256.706 1255.926 1255.162 1254.437 1253.753 1253.106 1252.507 1251.98 1251.473 1251.008 1250.437 1249.832 1249.108 1248.42 1247.713 1247.007 1246.301 1245.619 1244.99 1244.399 1243.792 1243.114 1242.326 1241.472 1240.562 1239.628 1238.701 1237.854 1237.057 1236.338 1235.69 1235.141 1234.597 1234.055 1233.533 1233.077 1232.631 1232.177 1231.723 1231.304 1230.907 1230.555 1230.204 1229.861 1229.486 1229.088 1228.66 1228.211 1227.754 1227.258 1226.699 1226.08 1225.417 1224.715 1223.949 1223.125 1222.258 1221.432 1220.566 1219.667 1218.672 1217.575 1216.341 1215.043 1213.865 1212.782 1211.633 1210.299 1208.862 1207.4 1205.925 1204.392 1202.835 1201.267 1199.833 1198.691 1197.86 1197.233 1196.619 1196.008 1195.382 1194.752 1194.052 1193.266 1192.381 1191.339 1190.198 1189.001 1187.861 1186.717 1185.535 1184.315 1183.019 1181.689 1180.333 1179.033 1177.806 1176.613 1175.447 1174.277 1173.129 1172.009 1170.943 1169.929 1168.932 1167.925 1166.912 1165.913 1164.913 1163.937 1162.968 1162.008 1161.044 1160.091 1159.142 1158.201 1157.238 1156.265 1155.282 1154.332 1153.416 1152.541 1151.674 1150.803 1149.935 1149.111 1148.355 1147.627 1146.905 1146.147 1145.429 1144.675 1143.94 1143.15 1142.373 1141.569 1140.77 1140.024 1139.359 1138.777 1138.146 1137.5 1136.791 1136.105 1135.387 1134.719 1134.1 1133.624 1133.097 1132.522 1131.803 1131.091 1130.38 1129.648 1128.906 1128.193 1127.535 1126.921 1126.321 1125.729 1125.114 1124.449 1123.732 1122.985 1122.244 1121.518 1120.802 1120.091 1119.384 1118.703 1118.042 1117.403 1116.779 1116.179 1115.601 1114.967 1114.271 1113.498 1112.747 1111.984 1111.299 1110.665 1110.148 1109.643 1109.15 1108.669 1108.222 1107.785 1107.306 1106.797 1106.289 1105.799 1105.325 1104.855 1104.429 1104.027 1103.652 1103.223 1102.763 1102.267 1101.775 1101.279 1100.779 1100.276 1099.766 1099.249 1098.722 1098.189 1097.652 1097.108 1096.548 1095.974 1095.414 1094.863 1094.322 1093.77 1093.223 1092.679 1092.129 1091.58 1091.037 1090.514 1089.986 1089.45 1088.828 1088.132 1087.353 1086.644 1086.013 1085.431 1084.8 1084.127 1083.478 1082.885 1082.34 1081.808 1081.271 1080.721 1080.17 1079.626 1079.095 1078.57 1078.039 1077.5 1076.952 1076.393 1075.823 1075.247 1074.666 1074.081 1073.486 1072.879 1072.257 1071.622 1070.976 1070.319 1069.654 1068.983 1068.309 1067.633 1066.951 1066.211 1065.433 1064.622 1063.865 1063.122 1062.386 1061.646 1060.921 1060.217 1059.49 1058.745 1057.989 1057.237 1056.505 1055.774 1055.045 1054.291 1053.522 1052.738 1051.937 1051.102 1050.228 1049.314 1048.382 1047.436 1046.474 1045.496 1044.504 1043.514 1042.529 1041.551 1040.559 1039.555 1038.544 1037.54 1036.543 1035.552 1034.563 1033.578 1032.603 1031.63 1030.656 1029.686 1028.731 1027.787 1026.842 1025.879 1024.914 1023.95 1022.997 1022.04 1021.065 1020.088 1019.107 1018.133 1017.133 1016.104 1015.05 1014.023 1013.032 1012.08 1011.137 1010.203 1009.277 1008.35 1007.421 1006.488 1005.565 1004.649 1003.747 1002.841 1001.908 1000.939 999.9163 998.8231 997.6296 996.341 994.9785 993.5574 992.0878 990.6038 989.169 987.785 986.4327 985.0558 983.6921 982.3535 981.0612 979.7769 978.4951 977.2089 975.9227 974.6605 973.4225 972.2094 970.9926 969.7545 968.4916 967.2055 965.8645 964.516 963.152 961.8275 960.493 959.1309 957.7266
1284.339 1283.94 1283.528 1283.12 1282.686 1282.247 1281.783 1281.23 1280.566 1279.795 1278.981 1278.16 1277.356 1276.595 1275.894 1275.206 1274.489 1273.743 1273.014 1272.311 1271.648 1271.018 1270.405 1269.727 1268.93 1267.999 1267 1265.983 1264.959 1263.913 1262.846 1261.791 1260.761 1259.783 1258.838 1257.938 1257.066 1256.241 1255.427 1254.618 1253.828 1253.084 1252.375 1251.665 1250.96 1250.295 1249.707 1249.174 1248.687 1248.233 1247.706 1247.086 1246.349 1245.597 1244.861 1244.084 1243.338 1242.606 1241.984 1241.378 1240.703 1239.888 1238.967 1238.01 1237.074 1236.172 1235.34 1234.572 1233.865 1233.243 1232.709 1232.261 1231.792 1231.316 1230.849 1230.404 1229.96 1229.499 1229.058 1228.666 1228.281 1227.948 1227.575 1227.208 1226.766 1226.307 1225.822 1225.346 1224.871 1224.364 1223.803 1223.187 1222.533 1221.836 1221.076 1220.269 1219.467 1218.719 1217.915 1217.017 1216.012 1215.044 1213.956 1212.766 1211.57 1210.471 1209.334 1208.014 1206.569 1205.125 1203.679 1202.242 1200.796 1199.373 1198.051 1196.957 1196.101 1195.404 1194.753 1194.129 1193.525 1192.877 1192.16 1191.36 1190.507 1189.582 1188.519 1187.406 1186.257 1185.155 1184.02 1182.866 1181.691 1180.481 1179.241 1177.99 1176.795 1175.635 1174.504 1173.354 1172.217 1171.141 1170.143 1169.183 1168.205 1167.203 1166.22 1165.241 1164.263 1163.27 1162.292 1161.337 1160.408 1159.494 1158.575 1157.653 1156.724 1155.787 1154.851 1153.929 1153.041 1152.178 1151.328 1150.476 1149.639 1148.831 1148.073 1147.362 1146.657 1145.961 1145.198 1144.415 1143.587 1142.799 1142.011 1141.227 1140.469 1139.768 1139.197 1138.676 1138.106 1137.387 1136.61 1135.857 1135.205 1134.601 1134.043 1133.579 1133.062 1132.497 1131.788 1131.085 1130.388 1129.668 1128.938 1128.209 1127.537 1126.913 1126.325 1125.747 1125.142 1124.487 1123.773 1123.035 1122.292 1121.563 1120.852 1120.151 1119.454 1118.759 1118.088 1117.438 1116.81 1116.208 1115.639 1115.068 1114.432 1113.724 1112.911 1112.103 1111.331 1110.721 1110.176 1109.671 1109.146 1108.64 1108.172 1107.727 1107.284 1106.803 1106.302 1105.802 1105.318 1104.905 1104.519 1104.16 1103.734 1103.272 1102.774 1102.278 1101.785 1101.293 1100.795 1100.292 1099.783 1099.264 1098.734 1098.193 1097.647 1097.095 1096.54 1095.971 1095.411 1094.848 1094.297 1093.737 1093.183 1092.632 1092.077 1091.524 1090.979 1090.441 1089.901 1089.35 1088.735 1087.972 1087.202 1086.49 1085.924 1085.349 1084.732 1084.071 1083.405 1082.797 1082.239 1081.709 1081.174 1080.627 1080.081 1079.542 1079.019 1078.496 1077.968 1077.433 1076.888 1076.333 1075.768 1075.196 1074.617 1074.029 1073.431 1072.819 1072.196 1071.561 1070.915 1070.26 1069.599 1068.933 1068.265 1067.571 1066.872 1066.146 1065.406 1064.654 1063.917 1063.186 1062.437 1061.669 1060.925 1060.182 1059.443 1058.681 1057.942 1057.199 1056.495 1055.778 1055.066 1054.317 1053.554 1052.774 1051.975 1051.142 1050.273 1049.375 1048.46 1047.53 1046.581 1045.615 1044.638 1043.655 1042.676 1041.702 1040.729 1039.744 1038.747 1037.746 1036.753 1035.764 1034.775 1033.792 1032.817 1031.856 1030.889 1029.925 1028.966 1028.013 1027.062 1026.096 1025.135 1024.176 1023.226 1022.27 1021.306 1020.351 1019.39 1018.43 1017.456 1016.459 1015.4 1014.348 1013.329 1012.38 1011.435 1010.5 1009.57 1008.652 1007.734 1006.823 1005.919 1005.029 1004.143 1003.252 1002.342 1001.414 1000.451 999.3959 998.2057 996.8787 995.4619 993.9961 992.514 991.0704 989.6853 988.3572 987.0137 985.6466 984.2471 982.8862 981.5681 980.2701 978.9591 977.6392 976.3551 975.1078 973.8862 972.6642 971.4371 970.2 968.9392 967.6542 966.295 964.9227 963.5464 962.2156 960.8788 959.5132 958.1568
1282.819 1282.351 1281.877 1281.426 1280.982 1280.515 1279.944 1279.263 1278.487 1277.651 1276.791 1275.892 1275.022 1274.206 1273.452 1272.69 1271.894 1271.096 1270.342 1269.631 1268.952 1268.292 1267.623 1266.911 1266.134 1265.279 1264.357 1263.376 1262.345 1261.262 1260.144 1259.024 1257.928 1256.883 1255.898 1254.988 1254.139 1253.354 1252.555 1251.748 1250.95 1250.221 1249.547 1248.868 1248.174 1247.521 1246.926 1246.441 1245.987 1245.58 1245 1244.367 1243.612 1242.897 1242.113 1241.301 1240.511 1239.792 1239.161 1238.503 1237.715 1236.767 1235.728 1234.677 1233.662 1232.764 1231.995 1231.355 1230.779 1230.289 1229.866 1229.479 1229.08 1228.663 1228.233 1227.792 1227.346 1226.906 1226.504 1226.14 1225.777 1225.427 1225.03 1224.622 1224.158 1223.673 1223.167 1222.649 1222.135 1221.604 1221.03 1220.411 1219.745 1219.037 1218.279 1217.497 1216.762 1216.071 1215.327 1214.459 1213.501 1212.599 1211.659 1210.619 1209.437 1208.235 1207.045 1205.79 1204.449 1203.038 1201.662 1200.308 1198.993 1197.684 1196.48 1195.433 1194.564 1193.828 1193.13 1192.482 1191.803 1191.118 1190.368 1189.585 1188.776 1187.945 1186.951 1185.883 1184.741 1183.676 1182.592 1181.49 1180.376 1179.248 1178.098 1177.016 1175.855 1174.72 1173.525 1172.42 1171.323 1170.332 1169.4 1168.522 1167.571 1166.575 1165.567 1164.583 1163.629 1162.666 1161.681 1160.721 1159.804 1158.926 1158.047 1157.149 1156.245 1155.352 1154.47 1153.602 1152.735 1151.874 1151.028 1150.191 1149.375 1148.579 1147.821 1147.108 1146.438 1145.761 1145.035 1144.212 1143.391 1142.541 1141.747 1140.971 1140.276 1139.698 1139.152 1138.665 1138.028 1137.304 1136.512 1135.779 1135.14 1134.548 1133.951 1133.446 1132.891 1132.336 1131.645 1130.961 1130.281 1129.61 1128.922 1128.229 1127.541 1126.901 1126.305 1125.727 1125.123 1124.469 1123.773 1123.055 1122.331 1121.603 1120.889 1120.192 1119.506 1118.822 1118.137 1117.477 1116.838 1116.238 1115.659 1115.099 1114.519 1113.87 1113.098 1112.222 1111.422 1110.748 1110.206 1109.67 1109.146 1108.631 1108.137 1107.672 1107.229 1106.782 1106.307 1105.813 1105.378 1105.01 1104.663 1104.249 1103.775 1103.28 1102.784 1102.288 1101.797 1101.306 1100.813 1100.313 1099.803 1099.281 1098.746 1098.197 1097.639 1097.076 1096.514 1095.952 1095.392 1094.831 1094.27 1093.708 1093.146 1092.588 1092.025 1091.467 1090.91 1090.355 1089.797 1089.241 1088.623 1087.941 1087.18 1086.479 1085.82 1085.22 1084.61 1083.996 1083.347 1082.723 1082.127 1081.593 1081.056 1080.525 1079.992 1079.464 1078.943 1078.424 1077.901 1077.373 1076.834 1076.285 1075.724 1075.157 1074.58 1073.99 1073.389 1072.777 1072.154 1071.513 1070.862 1070.203 1069.545 1068.867 1068.18 1067.47 1066.771 1066.047 1065.331 1064.605 1063.894 1063.183 1062.454 1061.709 1060.923 1060.146 1059.365 1058.628 1057.898 1057.188 1056.482 1055.782 1055.074 1054.343 1053.586 1052.811 1052.013 1051.188 1050.335 1049.451 1048.549 1047.625 1046.686 1045.733 1044.769 1043.799 1042.82 1041.848 1040.876 1039.908 1038.923 1037.932 1036.942 1035.956 1034.976 1033.996 1033.024 1032.06 1031.102 1030.146 1029.19 1028.23 1027.272 1026.306 1025.346 1024.389 1023.441 1022.487 1021.537 1020.59 1019.648 1018.698 1017.74 1016.773 1015.713 1014.658 1013.613 1012.666 1011.724 1010.786 1009.852 1008.93 1008.028 1007.139 1006.262 1005.379 1004.501 1003.613 1002.722 1001.823 1000.907 999.8828 998.693 997.3317 995.8765 994.399 992.9487 991.5468 990.1967 988.8597 987.5324 986.1822 984.8203 983.4412 982.1317 980.8229 979.5193 978.1996 976.9333 975.7147 974.4993 973.2822 972.0584 970.8264 969.58 968.3065 966.9667 965.5508 964.1299 962.7565 961.4156 960.0692 958.743
1281.148 1280.62 1280.123 1279.674 1279.242 1278.731 1278.072 1277.254 1276.353 1275.424 1274.506 1273.566 1272.65 1271.777 1270.941 1270.095 1269.226 1268.388 1267.604 1266.857 1266.149 1265.458 1264.767 1264.045 1263.303 1262.52 1261.673 1260.732 1259.691 1258.576 1257.404 1256.218 1255.05 1253.946 1252.915 1251.984 1251.133 1250.368 1249.593 1248.806 1248.03 1247.333 1246.683 1246.069 1245.434 1244.844 1244.305 1243.873 1243.479 1243.003 1242.381 1241.694 1241.007 1240.297 1239.52 1238.698 1237.984 1237.251 1236.557 1235.716 1234.815 1233.771 1232.665 1231.522 1230.385 1229.453 1228.783 1228.332 1227.949 1227.573 1227.222 1226.85 1226.473 1226.075 1225.672 1225.252 1224.828 1224.434 1224.07 1223.741 1223.385 1222.993 1222.55 1222.114 1221.672 1221.2 1220.676 1220.115 1219.565 1218.989 1218.391 1217.738 1217.052 1216.332 1215.584 1214.821 1214.135 1213.454 1212.771 1211.946 1211.064 1210.208 1209.339 1208.408 1207.303 1206.096 1204.873 1203.658 1202.42 1201.154 1199.853 1198.592 1197.323 1196.114 1194.991 1194.007 1193.156 1192.404 1191.697 1190.974 1190.233 1189.474 1188.715 1187.947 1187.172 1186.385 1185.419 1184.392 1183.295 1182.285 1181.246 1180.193 1179.128 1178.063 1177.072 1176.146 1175.028 1173.831 1172.575 1171.514 1170.464 1169.552 1168.701 1167.897 1166.979 1165.998 1165 1164.022 1163.092 1162.156 1161.207 1160.232 1159.304 1158.414 1157.561 1156.69 1155.814 1154.963 1154.135 1153.311 1152.464 1151.605 1150.763 1149.94 1149.139 1148.351 1147.599 1146.887 1146.208 1145.54 1144.829 1144.071 1143.263 1142.426 1141.588 1140.815 1140.189 1139.675 1139.152 1138.552 1137.882 1137.153 1136.431 1135.717 1135.096 1134.47 1133.839 1133.294 1132.746 1132.197 1131.522 1130.852 1130.187 1129.528 1128.877 1128.215 1127.551 1126.904 1126.295 1125.699 1125.081 1124.428 1123.749 1123.056 1122.352 1121.642 1120.926 1120.225 1119.542 1118.869 1118.196 1117.535 1116.886 1116.268 1115.671 1115.107 1114.559 1113.946 1113.219 1112.395 1111.566 1110.852 1110.226 1109.68 1109.145 1108.628 1108.127 1107.643 1107.182 1106.734 1106.286 1105.868 1105.495 1105.17 1104.76 1104.288 1103.763 1103.275 1102.786 1102.297 1101.807 1101.321 1100.833 1100.336 1099.826 1099.3 1098.756 1098.197 1097.627 1097.056 1096.486 1095.918 1095.351 1094.784 1094.22 1093.655 1093.089 1092.522 1091.959 1091.396 1090.833 1090.261 1089.694 1089.132 1088.584 1087.97 1087.288 1086.506 1085.766 1085.072 1084.476 1083.874 1083.242 1082.609 1082.008 1081.469 1080.942 1080.424 1079.905 1079.386 1078.868 1078.354 1077.84 1077.322 1076.792 1076.246 1075.69 1075.126 1074.55 1073.958 1073.354 1072.74 1072.115 1071.474 1070.817 1070.14 1069.462 1068.766 1068.078 1067.366 1066.668 1065.962 1065.269 1064.569 1063.866 1063.158 1062.435 1061.694 1060.889 1060.082 1059.294 1058.573 1057.874 1057.174 1056.477 1055.775 1055.071 1054.351 1053.609 1052.843 1052.054 1051.245 1050.408 1049.544 1048.649 1047.732 1046.797 1045.852 1044.897 1043.933 1042.962 1041.992 1041.023 1040.055 1039.079 1038.097 1037.115 1036.138 1035.167 1034.196 1033.222 1032.255 1031.296 1030.342 1029.388 1028.432 1027.474 1026.509 1025.549 1024.593 1023.646 1022.704 1021.767 1020.833 1019.894 1018.955 1018.009 1017.053 1015.991 1014.933 1013.885 1012.939 1011.997 1011.061 1010.12 1009.196 1008.293 1007.423 1006.552 1005.677 1004.794 1003.91 1003.026 1002.136 1001.228 1000.216 999.0353 997.6724 996.2224 994.7747 993.3682 992.0041 990.6544 989.3154 987.9834 986.6727 985.3519 984.0364 982.7387 981.4242 980.1124 978.7986 977.5543 976.3382 975.1344 973.928 972.718 971.4975 970.2601 968.9954 967.6784 966.2841 964.8289 963.39 962.0462 960.7289 959.4489
1279.329 1278.753 1278.248 1277.802 1277.387 1276.861 1276.124 1275.178 1274.141 1273.104 1272.127 1271.151 1270.2 1269.24 1268.318 1267.405 1266.5 1265.631 1264.809 1264.024 1263.276 1262.55 1261.839 1261.124 1260.429 1259.726 1258.969 1258.082 1257.042 1255.872 1254.623 1253.351 1252.12 1250.953 1249.872 1248.893 1248.032 1247.291 1246.59 1245.878 1245.14 1244.449 1243.822 1243.267 1242.715 1242.225 1241.783 1241.417 1241 1240.462 1239.803 1239.119 1238.46 1237.781 1237.075 1236.414 1235.76 1235.008 1234.092 1233.088 1232.053 1230.975 1229.833 1228.641 1227.455 1226.519 1225.918 1225.622 1225.383 1225.108 1224.788 1224.43 1224.038 1223.632 1223.222 1222.823 1222.444 1222.09 1221.768 1221.419 1221.036 1220.603 1220.183 1219.767 1219.341 1218.844 1218.301 1217.718 1217.141 1216.517 1215.866 1215.165 1214.45 1213.717 1212.973 1212.221 1211.547 1210.879 1210.224 1209.476 1208.677 1207.87 1207.041 1206.19 1205.197 1204.088 1202.875 1201.677 1200.526 1199.392 1198.224 1196.986 1195.771 1194.621 1193.585 1192.64 1191.792 1191.043 1190.323 1189.592 1188.791 1187.991 1187.201 1186.441 1185.683 1184.896 1183.984 1182.987 1181.955 1180.965 1179.98 1178.971 1177.964 1177.056 1176.225 1175.455 1174.387 1173.118 1171.779 1170.641 1169.637 1168.812 1168.036 1167.299 1166.4 1165.441 1164.461 1163.498 1162.581 1161.68 1160.772 1159.836 1158.883 1157.973 1157.104 1156.268 1155.437 1154.627 1153.832 1153.028 1152.203 1151.365 1150.536 1149.723 1148.926 1148.151 1147.406 1146.69 1145.987 1145.291 1144.61 1143.899 1143.176 1142.343 1141.562 1140.801 1140.212 1139.682 1139.067 1138.388 1137.636 1136.974 1136.319 1135.67 1135.015 1134.355 1133.692 1133.152 1132.611 1132.067 1131.405 1130.747 1130.095 1129.448 1128.806 1128.171 1127.52 1126.882 1126.262 1125.658 1125.036 1124.384 1123.719 1123.043 1122.36 1121.667 1120.969 1120.263 1119.573 1118.901 1118.24 1117.592 1116.941 1116.307 1115.691 1115.127 1114.557 1113.961 1113.317 1112.597 1111.807 1111.002 1110.301 1109.709 1109.174 1108.646 1108.127 1107.629 1107.15 1106.692 1106.269 1105.926 1105.621 1105.265 1104.794 1104.267 1103.746 1103.261 1102.778 1102.296 1101.816 1101.336 1100.855 1100.363 1099.853 1099.319 1098.763 1098.191 1097.612 1097.032 1096.454 1095.878 1095.304 1094.733 1094.164 1093.596 1093.027 1092.458 1091.879 1091.302 1090.72 1090.151 1089.586 1089.031 1088.48 1087.933 1087.243 1086.461 1085.641 1084.959 1084.33 1083.71 1083.064 1082.457 1081.882 1081.349 1080.827 1080.317 1079.808 1079.299 1078.792 1078.288 1077.785 1077.278 1076.754 1076.215 1075.662 1075.101 1074.523 1073.93 1073.322 1072.706 1072.071 1071.413 1070.737 1070.048 1069.363 1068.662 1067.971 1067.279 1066.597 1065.908 1065.216 1064.523 1063.828 1063.128 1062.408 1061.644 1060.809 1059.996 1059.224 1058.532 1057.844 1057.159 1056.465 1055.764 1055.061 1054.359 1053.635 1052.887 1052.106 1051.306 1050.484 1049.635 1048.755 1047.843 1046.911 1045.967 1045.016 1044.055 1043.092 1042.128 1041.162 1040.184 1039.201 1038.227 1037.261 1036.301 1035.34 1034.377 1033.411 1032.443 1031.482 1030.526 1029.575 1028.622 1027.668 1026.708 1025.75 1024.794 1023.853 1022.92 1021.995 1021.065 1020.131 1019.193 1018.26 1017.313 1016.263 1015.201 1014.148 1013.198 1012.265 1011.335 1010.397 1009.461 1008.548 1007.665 1006.797 1005.916 1005.033 1004.14 1003.251 1002.348 1001.418 1000.392 999.2272 997.9008 996.5082 995.1071 993.7496 992.3998 991.0594 989.7252 988.4094 987.1132 985.8558 984.6058 983.3758 982.05 980.7367 979.4201 978.1932 976.9835 975.7864 974.6017 973.4117 972.209 970.9783 969.7171 968.4256 967.0571 965.6152 964.1774 962.8366 961.5153 960.1738
1277.404 1276.787 1276.245 1275.756 1275.309 1274.74 1273.95 1272.922 1271.802 1270.687 1269.637 1268.622 1267.624 1266.607 1265.607 1264.649 1263.723 1262.831 1261.967 1261.131 1260.345 1259.576 1258.842 1258.127 1257.481 1256.859 1256.215 1255.429 1254.406 1253.156 1251.782 1250.414 1249.113 1247.885 1246.759 1245.741 1244.865 1244.127 1243.507 1242.928 1242.31 1241.653 1241.023 1240.496 1240.069 1239.704 1239.371 1238.994 1238.556 1237.957 1237.321 1236.646 1236.018 1235.379 1234.821 1234.327 1233.773 1232.906 1231.832 1230.644 1229.537 1228.414 1227.282 1226.122 1224.986 1224.101 1223.542 1223.276 1223.083 1222.847 1222.566 1222.196 1221.788 1221.36 1220.965 1220.582 1220.219 1219.899 1219.56 1219.189 1218.755 1218.351 1217.958 1217.568 1217.101 1216.577 1216.012 1215.44 1214.844 1214.189 1213.482 1212.727 1211.964 1211.198 1210.445 1209.698 1209.035 1208.396 1207.769 1207.065 1206.32 1205.559 1204.775 1203.966 1203.098 1202.114 1201.029 1199.893 1198.805 1197.753 1196.647 1195.485 1194.314 1193.232 1192.237 1191.324 1190.484 1189.707 1188.976 1188.231 1187.458 1186.63 1185.818 1185.033 1184.268 1183.479 1182.613 1181.66 1180.677 1179.705 1178.764 1177.825 1176.956 1176.189 1175.478 1174.673 1173.664 1172.378 1171.102 1169.887 1168.931 1168.143 1167.442 1166.691 1165.784 1164.847 1163.923 1163.01 1162.109 1161.225 1160.357 1159.481 1158.573 1157.641 1156.74 1155.898 1155.105 1154.329 1153.544 1152.75 1151.948 1151.147 1150.346 1149.54 1148.746 1147.973 1147.234 1146.509 1145.784 1145.071 1144.379 1143.714 1143.01 1142.253 1141.482 1140.736 1140.126 1139.534 1138.907 1138.173 1137.441 1136.769 1136.128 1135.485 1134.841 1134.197 1133.554 1133.022 1132.486 1131.946 1131.295 1130.648 1130.006 1129.369 1128.736 1128.099 1127.461 1126.832 1126.219 1125.609 1124.985 1124.343 1123.688 1123.025 1122.356 1121.682 1121 1120.311 1119.613 1118.931 1118.27 1117.634 1116.995 1116.353 1115.733 1115.132 1114.552 1113.949 1113.367 1112.75 1112.057 1111.277 1110.495 1109.823 1109.229 1108.687 1108.152 1107.648 1107.166 1106.712 1106.296 1105.966 1105.638 1105.251 1104.754 1104.231 1103.723 1103.239 1102.759 1102.285 1101.815 1101.346 1100.873 1100.389 1099.879 1099.337 1098.764 1098.178 1097.589 1097.001 1096.415 1095.831 1095.25 1094.673 1094.099 1093.528 1092.959 1092.377 1091.787 1091.194 1090.615 1090.047 1089.487 1088.932 1088.38 1087.758 1087.059 1086.27 1085.539 1084.861 1084.234 1083.559 1082.91 1082.299 1081.764 1081.241 1080.729 1080.221 1079.716 1079.213 1078.712 1078.219 1077.729 1077.232 1076.716 1076.183 1075.638 1075.08 1074.501 1073.904 1073.283 1072.653 1072.005 1071.345 1070.666 1069.965 1069.266 1068.572 1067.897 1067.218 1066.535 1065.846 1065.157 1064.468 1063.78 1063.091 1062.38 1061.579 1060.731 1059.903 1059.17 1058.487 1057.816 1057.138 1056.453 1055.754 1055.058 1054.365 1053.66 1052.931 1052.165 1051.375 1050.561 1049.725 1048.857 1047.956 1047.024 1046.078 1045.125 1044.167 1043.212 1042.254 1041.285 1040.297 1039.308 1038.338 1037.388 1036.442 1035.496 1034.546 1033.592 1032.631 1031.669 1030.713 1029.76 1028.808 1027.856 1026.901 1025.946 1024.995 1024.058 1023.134 1022.213 1021.29 1020.361 1019.429 1018.495 1017.557 1016.545 1015.492 1014.44 1013.461 1012.529 1011.6 1010.663 1009.721 1008.786 1007.882 1006.991 1006.108 1005.22 1004.328 1003.426 1002.503 1001.533 1000.487 999.342 998.087 996.7598 995.4083 994.0685 992.7405 991.4163 990.1053 988.8099 987.5488 986.3255 985.1423 983.9337 982.6518 981.3127 979.9972 978.7471 977.5417 976.3536 975.178 974.0043 972.809 971.5839 970.3273 969.0422 967.7282 966.3956 965.048 963.6873 962.2704 960.8443
1275.382 1274.712 1274.102 1273.538 1273.002 1272.353 1271.505 1270.451 1269.31 1268.171 1267.072 1266.001 1264.946 1263.881 1262.844 1261.86 1260.915 1259.997 1259.084 1258.204 1257.364 1256.549 1255.769 1255.042 1254.414 1253.857 1253.336 1252.685 1251.694 1250.354 1248.839 1247.377 1246.01 1244.717 1243.534 1242.495 1241.628 1240.941 1240.419 1239.959 1239.483 1238.931 1238.345 1237.866 1237.489 1237.226 1236.904 1236.525 1236.071 1235.499 1234.876 1234.21 1233.634 1233.177 1232.793 1232.402 1231.742 1230.851 1229.686 1228.486 1227.263 1226.124 1225.041 1223.994 1223.023 1222.199 1221.625 1221.251 1220.979 1220.727 1220.451 1220.113 1219.69 1219.252 1218.854 1218.5 1218.187 1217.842 1217.463 1217.023 1216.61 1216.236 1215.876 1215.439 1214.944 1214.392 1213.85 1213.283 1212.673 1211.979 1211.238 1210.444 1209.626 1208.794 1207.998 1207.249 1206.605 1206.001 1205.418 1204.766 1204.087 1203.372 1202.635 1201.862 1201.054 1200.188 1199.279 1198.302 1197.278 1196.202 1195.135 1194.039 1192.969 1191.913 1190.948 1190.045 1189.208 1188.413 1187.652 1186.92 1186.164 1185.373 1184.541 1183.726 1182.927 1182.134 1181.321 1180.412 1179.475 1178.516 1177.629 1176.824 1176.097 1175.432 1174.676 1173.833 1172.896 1171.752 1170.535 1169.26 1168.279 1167.531 1166.847 1166.078 1165.161 1164.253 1163.359 1162.47 1161.599 1160.739 1159.896 1159.094 1158.256 1157.385 1156.463 1155.607 1154.808 1154.04 1153.266 1152.486 1151.712 1150.945 1150.169 1149.377 1148.583 1147.811 1147.066 1146.333 1145.606 1144.884 1144.182 1143.49 1142.805 1142.091 1141.417 1140.685 1140.032 1139.348 1138.71 1137.978 1137.264 1136.582 1135.951 1135.312 1134.672 1134.038 1133.409 1132.883 1132.353 1131.818 1131.179 1130.544 1129.912 1129.284 1128.669 1128.048 1127.41 1126.769 1126.146 1125.543 1124.93 1124.298 1123.654 1123.003 1122.347 1121.686 1121.021 1120.348 1119.665 1118.973 1118.299 1117.647 1117.021 1116.389 1115.758 1115.141 1114.528 1113.953 1113.378 1112.825 1112.202 1111.505 1110.741 1110.046 1109.384 1108.784 1108.189 1107.665 1107.201 1106.763 1106.354 1105.953 1105.561 1105.144 1104.681 1104.188 1103.69 1103.207 1102.732 1102.263 1101.8 1101.339 1100.877 1100.407 1099.899 1099.345 1098.752 1098.153 1097.554 1096.958 1096.365 1095.776 1095.19 1094.607 1094.029 1093.454 1092.881 1092.299 1091.699 1091.104 1090.517 1089.952 1089.389 1088.833 1088.209 1087.512 1086.737 1086.031 1085.377 1084.779 1084.13 1083.472 1082.808 1082.208 1081.652 1081.138 1080.627 1080.121 1079.62 1079.122 1078.627 1078.143 1077.662 1077.175 1076.671 1076.151 1075.615 1075.062 1074.481 1073.875 1073.242 1072.599 1071.941 1071.271 1070.586 1069.888 1069.194 1068.507 1067.83 1067.149 1066.464 1065.778 1065.092 1064.406 1063.721 1063.041 1062.338 1061.545 1060.7 1059.868 1059.131 1058.447 1057.783 1057.113 1056.437 1055.752 1055.063 1054.385 1053.688 1052.975 1052.218 1051.439 1050.634 1049.805 1048.946 1048.052 1047.13 1046.184 1045.229 1044.272 1043.322 1042.361 1041.387 1040.396 1039.411 1038.446 1037.499 1036.568 1035.636 1034.701 1033.757 1032.806 1031.852 1030.895 1029.942 1028.99 1028.042 1027.092 1026.14 1025.194 1024.26 1023.341 1022.424 1021.504 1020.578 1019.648 1018.715 1017.778 1016.804 1015.79 1014.744 1013.736 1012.776 1011.85 1010.905 1009.952 1009.004 1008.081 1007.174 1006.273 1005.383 1004.484 1003.573 1002.622 1001.626 1000.563 999.4415 998.2458 996.9936 995.6788 994.3563 993.0355 991.7419 990.4575 989.201 987.9772 986.7895 985.6047 984.42 983.1833 981.9116 980.6031 979.3378 978.1168 976.9424 975.7816 974.6171 973.4354 972.2217 970.9796 969.7048 968.4483 967.2153 965.9654 964.5844 963.07 961.5514
1273.263 1272.53 1271.841 1271.181 1270.507 1269.741 1268.835 1267.797 1266.69 1265.56 1264.44 1263.321 1262.217 1261.123 1260.068 1259.062 1258.087 1257.128 1256.169 1255.233 1254.329 1253.45 1252.616 1251.846 1251.194 1250.642 1250.171 1249.581 1248.621 1247.276 1245.725 1244.236 1242.825 1241.492 1240.27 1239.21 1238.354 1237.716 1237.255 1236.911 1236.597 1236.253 1235.921 1235.507 1235.167 1234.792 1234.48 1234.099 1233.68 1233.165 1232.559 1231.946 1231.509 1231.209 1230.891 1230.37 1229.639 1228.732 1227.675 1226.48 1225.254 1224.112 1223.103 1222.182 1221.311 1220.545 1219.929 1219.46 1219.08 1218.754 1218.446 1218.106 1217.716 1217.296 1216.914 1216.571 1216.248 1215.892 1215.477 1215.068 1214.656 1214.287 1213.851 1213.385 1212.862 1212.344 1211.803 1211.235 1210.586 1209.885 1209.123 1208.312 1207.437 1206.538 1205.677 1204.907 1204.28 1203.741 1203.227 1202.66 1202.032 1201.362 1200.641 1199.903 1199.13 1198.379 1197.635 1196.821 1195.867 1194.792 1193.731 1192.685 1191.669 1190.658 1189.713 1188.824 1187.987 1187.179 1186.403 1185.651 1184.913 1184.145 1183.34 1182.501 1181.68 1180.874 1180.075 1179.205 1178.313 1177.412 1176.626 1175.934 1175.306 1174.587 1173.76 1172.856 1171.963 1170.993 1169.852 1168.642 1167.602 1166.869 1166.201 1165.445 1164.564 1163.69 1162.822 1161.992 1161.177 1160.377 1159.522 1158.725 1157.925 1157.124 1156.253 1155.378 1154.55 1153.758 1152.995 1152.24 1151.494 1150.755 1150 1149.218 1148.427 1147.649 1146.899 1146.167 1145.444 1144.728 1144.004 1143.286 1142.599 1141.962 1141.317 1140.602 1139.883 1139.183 1138.521 1137.791 1137.086 1136.407 1135.786 1135.151 1134.519 1133.892 1133.271 1132.751 1132.227 1131.699 1131.071 1130.445 1129.823 1129.214 1128.617 1128.011 1127.37 1126.741 1126.124 1125.533 1124.915 1124.278 1123.631 1122.978 1122.334 1121.685 1121.031 1120.374 1119.707 1119.03 1118.343 1117.676 1117.029 1116.392 1115.762 1115.127 1114.536 1113.951 1113.385 1112.805 1112.231 1111.629 1110.958 1110.27 1109.574 1108.952 1108.311 1107.76 1107.257 1106.835 1106.389 1105.919 1105.463 1105.018 1104.586 1104.121 1103.649 1103.168 1102.695 1102.229 1101.766 1101.308 1100.849 1100.383 1099.873 1099.314 1098.713 1098.107 1097.503 1096.902 1096.305 1095.712 1095.122 1094.536 1093.954 1093.374 1092.797 1092.213 1091.625 1091.028 1090.44 1089.86 1089.294 1088.667 1087.971 1087.2 1086.493 1085.847 1085.266 1084.656 1084.045 1083.406 1082.778 1082.15 1081.572 1081.031 1080.521 1080.017 1079.518 1079.026 1078.538 1078.057 1077.582 1077.106 1076.619 1076.117 1075.594 1075.045 1074.465 1073.848 1073.202 1072.542 1071.882 1071.217 1070.539 1069.835 1069.133 1068.433 1067.753 1067.07 1066.387 1065.703 1065.02 1064.337 1063.655 1062.963 1062.251 1061.495 1060.709 1059.906 1059.139 1058.416 1057.74 1057.08 1056.42 1055.753 1055.075 1054.399 1053.705 1052.999 1052.256 1051.493 1050.705 1049.883 1049.028 1048.139 1047.227 1046.292 1045.335 1044.376 1043.415 1042.452 1041.473 1040.495 1039.525 1038.564 1037.613 1036.679 1035.761 1034.838 1033.907 1032.967 1032.023 1031.075 1030.123 1029.173 1028.225 1027.28 1026.332 1025.393 1024.466 1023.551 1022.637 1021.717 1020.793 1019.863 1018.928 1017.988 1017.046 1016.067 1015.058 1014.029 1013.032 1012.085 1011.149 1010.191 1009.219 1008.263 1007.338 1006.426 1005.524 1004.627 1003.697 1002.728 1001.705 1000.65 999.5479 998.4056 997.2004 995.9409 994.6322 993.3261 992.041 990.7988 989.5823 988.3964 987.2123 986.0286 984.8428 983.6709 982.4658 981.2264 979.954 978.7254 977.5433 976.3954 975.2462 974.0804 972.8902 971.6683 970.4506 969.2454 968.0563 966.79 965.3846 963.8706 962.3231
1271.047 1270.261 1269.503 1268.743 1267.948 1267.08 1266.119 1265.082 1263.992 1262.877 1261.743 1260.602 1259.465 1258.364 1257.298 1256.267 1255.247 1254.238 1253.229 1252.23 1251.241 1250.285 1249.374 1248.541 1247.819 1247.206 1246.68 1246.065 1245.142 1243.887 1242.435 1240.999 1239.603 1238.256 1236.999 1235.906 1235.059 1234.49 1234.156 1233.969 1233.865 1233.787 1233.725 1233.515 1233.086 1232.579 1232.118 1231.776 1231.391 1230.933 1230.384 1229.88 1229.578 1229.362 1228.981 1228.313 1227.486 1226.648 1225.686 1224.626 1223.48 1222.425 1221.467 1220.576 1219.732 1218.973 1218.342 1217.81 1217.354 1216.932 1216.556 1216.197 1215.839 1215.462 1215.083 1214.719 1214.374 1213.99 1213.604 1213.223 1212.856 1212.436 1211.944 1211.426 1210.923 1210.415 1209.878 1209.263 1208.609 1207.897 1207.146 1206.308 1205.399 1204.439 1203.495 1202.692 1202.083 1201.618 1201.184 1200.695 1200.139 1199.519 1198.847 1198.141 1197.469 1196.809 1196.159 1195.381 1194.477 1193.468 1192.444 1191.415 1190.421 1189.444 1188.531 1187.655 1186.819 1186.009 1185.222 1184.457 1183.705 1182.96 1182.182 1181.373 1180.533 1179.711 1178.904 1178.071 1177.229 1176.423 1175.725 1175.105 1174.442 1173.683 1172.824 1171.967 1171.122 1170.237 1169.172 1168.011 1166.935 1166.152 1165.495 1164.8 1163.994 1163.153 1162.352 1161.579 1160.821 1160.036 1159.197 1158.383 1157.582 1156.822 1156.017 1155.181 1154.324 1153.509 1152.74 1152.006 1151.282 1150.56 1149.818 1149.049 1148.262 1147.487 1146.733 1146 1145.286 1144.567 1143.838 1143.119 1142.453 1141.84 1141.238 1140.557 1139.854 1139.131 1138.447 1137.694 1136.969 1136.273 1135.653 1135.031 1134.407 1133.778 1133.154 1132.626 1132.107 1131.585 1130.969 1130.353 1129.751 1129.161 1128.58 1127.992 1127.366 1126.752 1126.131 1125.533 1124.91 1124.273 1123.622 1122.966 1122.317 1121.679 1121.036 1120.389 1119.737 1119.076 1118.404 1117.738 1117.064 1116.42 1115.764 1115.155 1114.524 1113.939 1113.346 1112.783 1112.208 1111.639 1111.044 1110.43 1109.754 1109.114 1108.437 1107.855 1107.314 1106.851 1106.378 1105.885 1105.397 1104.958 1104.532 1104.094 1103.612 1103.122 1102.649 1102.181 1101.715 1101.252 1100.787 1100.314 1099.8 1099.242 1098.645 1098.044 1097.443 1096.845 1096.248 1095.649 1095.052 1094.457 1093.87 1093.286 1092.707 1092.134 1091.556 1090.97 1090.37 1089.779 1089.135 1088.439 1087.671 1086.962 1086.31 1085.722 1085.122 1084.525 1083.925 1083.341 1082.735 1082.127 1081.512 1080.944 1080.41 1079.913 1079.418 1078.93 1078.442 1077.964 1077.493 1077.027 1076.558 1076.077 1075.571 1075.031 1074.45 1073.824 1073.168 1072.497 1071.825 1071.15 1070.467 1069.77 1069.063 1068.358 1067.666 1066.984 1066.303 1065.621 1064.941 1064.261 1063.567 1062.859 1062.136 1061.427 1060.705 1059.961 1059.183 1058.422 1057.71 1057.046 1056.404 1055.751 1055.08 1054.399 1053.709 1053.008 1052.28 1051.528 1050.754 1049.94 1049.091 1048.207 1047.309 1046.388 1045.447 1044.484 1043.515 1042.539 1041.57 1040.601 1039.64 1038.68 1037.727 1036.79 1035.865 1034.951 1034.029 1033.101 1032.17 1031.236 1030.298 1029.353 1028.412 1027.472 1026.533 1025.599 1024.68 1023.772 1022.858 1021.935 1021.005 1020.073 1019.135 1018.192 1017.244 1016.295 1015.309 1014.305 1013.304 1012.342 1011.392 1010.401 1009.408 1008.435 1007.503 1006.581 1005.669 1004.752 1003.808 1002.812 1001.796 1000.754 999.6732 998.5443 997.3763 996.1671 994.914 993.6213 992.356 991.1301 989.9533 988.7756 987.597 986.4162 985.2486 984.0944 982.953 981.7831 980.5826 979.3516 978.1606 977.0063 975.8809 974.7426 973.5808 972.4207 971.2586 970.0968 968.8498 967.521 966.1102 964.6494 963.1498
1268.805 1267.964 1267.121 1266.263 1265.37 1264.42 1263.419 1262.365 1261.271 1260.156 1259.016 1257.863 1256.72 1255.613 1254.538 1253.468 1252.402 1251.337 1250.271 1249.196 1248.127 1247.078 1246.08 1245.149 1244.323 1243.599 1242.949 1242.251 1241.38 1240.293 1239.046 1237.739 1236.411 1235.08 1233.789 1232.636 1231.781 1231.299 1231.139 1231.17 1231.282 1231.405 1231.586 1231.555 1231.277 1230.634 1230.05 1229.568 1229.214 1228.814 1228.38 1228.045 1227.828 1227.531 1227.013 1226.251 1225.441 1224.623 1223.758 1222.872 1221.929 1220.996 1220.042 1219.099 1218.214 1217.445 1216.803 1216.251 1215.741 1215.264 1214.807 1214.423 1214.084 1213.746 1213.37 1212.951 1212.539 1212.158 1211.818 1211.5 1211.097 1210.62 1210.078 1209.585 1209.101 1208.605 1208.023 1207.397 1206.731 1206.046 1205.282 1204.441 1203.513 1202.544 1201.573 1200.757 1200.153 1199.728 1199.332 1198.899 1198.391 1197.823 1197.192 1196.603 1196.036 1195.469 1194.783 1193.985 1193.112 1192.189 1191.223 1190.212 1189.234 1188.299 1187.416 1186.581 1185.744 1184.932 1184.114 1183.339 1182.577 1181.823 1181.068 1180.284 1179.47 1178.638 1177.823 1177.013 1176.215 1175.489 1174.847 1174.214 1173.514 1172.742 1171.957 1171.167 1170.32 1169.418 1168.408 1167.323 1166.285 1165.456 1164.785 1164.147 1163.409 1162.673 1161.937 1161.22 1160.473 1159.699 1158.871 1158.104 1157.308 1156.555 1155.746 1154.946 1154.122 1153.295 1152.517 1151.778 1151.07 1150.36 1149.63 1148.871 1148.097 1147.327 1146.575 1145.841 1145.117 1144.396 1143.67 1142.974 1142.33 1141.715 1141.1 1140.454 1139.743 1139.023 1138.314 1137.627 1136.907 1136.195 1135.534 1134.923 1134.307 1133.685 1133.067 1132.538 1132.02 1131.494 1130.881 1130.28 1129.697 1129.124 1128.546 1127.96 1127.349 1126.751 1126.142 1125.543 1124.915 1124.277 1123.627 1122.966 1122.312 1121.668 1121.035 1120.397 1119.755 1119.108 1118.462 1117.81 1117.119 1116.446 1115.797 1115.188 1114.556 1113.977 1113.375 1112.802 1112.183 1111.613 1111.049 1110.461 1109.855 1109.242 1108.574 1107.956 1107.352 1106.852 1106.341 1105.846 1105.385 1104.951 1104.53 1104.069 1103.578 1103.077 1102.593 1102.12 1101.648 1101.176 1100.697 1100.205 1099.686 1099.134 1098.552 1097.961 1097.365 1096.77 1096.175 1095.576 1094.979 1094.374 1093.776 1093.185 1092.61 1092.04 1091.47 1090.89 1090.3 1089.698 1089.044 1088.269 1087.501 1086.783 1086.184 1085.576 1084.978 1084.382 1083.807 1083.236 1082.672 1082.08 1081.477 1080.873 1080.323 1079.811 1079.319 1078.826 1078.335 1077.862 1077.396 1076.937 1076.483 1076.024 1075.543 1075.016 1074.433 1073.796 1073.13 1072.444 1071.756 1071.067 1070.382 1069.691 1068.991 1068.282 1067.581 1066.891 1066.211 1065.533 1064.855 1064.163 1063.457 1062.738 1062.033 1061.344 1060.67 1059.97 1059.234 1058.452 1057.71 1057.017 1056.381 1055.734 1055.068 1054.389 1053.708 1053.012 1052.296 1051.548 1050.782 1049.978 1049.136 1048.261 1047.363 1046.453 1045.518 1044.563 1043.592 1042.624 1041.664 1040.707 1039.747 1038.788 1037.837 1036.894 1035.964 1035.044 1034.134 1033.22 1032.302 1031.384 1030.462 1029.534 1028.599 1027.666 1026.736 1025.815 1024.904 1023.999 1023.089 1022.161 1021.224 1020.28 1019.336 1018.387 1017.434 1016.485 1015.524 1014.536 1013.544 1012.576 1011.622 1010.638 1009.622 1008.626 1007.66 1006.736 1005.807 1004.872 1003.895 1002.907 1001.9 1000.877 999.8028 998.6828 997.5292 996.3638 995.1644 993.9271 992.68 991.4697 990.2901 989.1215 987.9493 986.7885 985.6401 984.506 983.3859 982.2817 981.1477 979.9832 978.7888 977.6351 976.5163 975.4129 974.316 973.2153 972.1064 970.9022 969.6002 968.2103 966.7927 965.3688 963.8772
1266.561 1265.639 1264.716 1263.769 1262.792 1261.787 1260.75 1259.674 1258.551 1257.425 1256.276 1255.139 1253.998 1252.887 1251.773 1250.665 1249.558 1248.453 1247.325 1246.174 1245.023 1243.88 1242.771 1241.718 1240.759 1239.913 1239.168 1238.45 1237.667 1236.75 1235.704 1234.554 1233.331 1232.049 1230.752 1229.515 1228.652 1228.265 1228.354 1228.602 1228.921 1229.196 1229.427 1229.554 1229.431 1228.909 1228.199 1227.566 1227.197 1226.871 1226.548 1226.296 1226.033 1225.659 1225.054 1224.324 1223.565 1222.801 1222.045 1221.297 1220.476 1219.582 1218.62 1217.673 1216.786 1215.993 1215.323 1214.743 1214.213 1213.693 1213.225 1212.799 1212.453 1212.094 1211.716 1211.271 1210.835 1210.438 1210.099 1209.738 1209.312 1208.832 1208.347 1207.876 1207.395 1206.859 1206.275 1205.645 1205.001 1204.303 1203.549 1202.705 1201.814 1200.868 1199.941 1199.145 1198.535 1198.083 1197.66 1197.223 1196.757 1196.244 1195.747 1195.27 1194.82 1194.21 1193.479 1192.637 1191.796 1190.932 1190.01 1189.071 1188.12 1187.216 1186.366 1185.57 1184.764 1183.932 1183.091 1182.289 1181.521 1180.761 1180.004 1179.242 1178.453 1177.645 1176.83 1176.038 1175.283 1174.615 1173.965 1173.314 1172.592 1171.873 1171.155 1170.451 1169.669 1168.819 1167.858 1166.825 1165.781 1164.881 1164.14 1163.487 1162.854 1162.218 1161.577 1160.841 1160.075 1159.283 1158.553 1157.863 1157.139 1156.332 1155.488 1154.683 1153.9 1153.109 1152.319 1151.575 1150.861 1150.157 1149.433 1148.691 1147.929 1147.165 1146.413 1145.676 1144.946 1144.22 1143.526 1142.867 1142.233 1141.59 1140.943 1140.299 1139.588 1138.87 1138.18 1137.554 1136.891 1136.171 1135.471 1134.827 1134.217 1133.603 1132.992 1132.462 1131.943 1131.416 1130.818 1130.23 1129.66 1129.09 1128.515 1127.932 1127.336 1126.737 1126.127 1125.516 1124.891 1124.265 1123.624 1122.975 1122.316 1121.668 1121.028 1120.399 1119.766 1119.122 1118.489 1117.83 1117.139 1116.463 1115.828 1115.218 1114.57 1114.01 1113.441 1112.858 1112.197 1111.584 1111.019 1110.46 1109.858 1109.249 1108.607 1107.992 1107.392 1106.832 1106.311 1105.834 1105.396 1104.984 1104.54 1104.057 1103.545 1103.032 1102.535 1102.049 1101.569 1101.086 1100.594 1100.091 1099.567 1099.02 1098.448 1097.866 1097.278 1096.688 1096.096 1095.499 1094.894 1094.28 1093.677 1093.089 1092.516 1091.944 1091.37 1090.797 1090.216 1089.625 1088.959 1088.238 1087.447 1086.718 1086.037 1085.431 1084.835 1084.258 1083.691 1083.134 1082.572 1082.006 1081.417 1080.829 1080.254 1079.727 1079.211 1078.711 1078.215 1077.743 1077.282 1076.829 1076.386 1075.947 1075.498 1074.986 1074.398 1073.742 1073.064 1072.38 1071.679 1070.98 1070.281 1069.598 1068.908 1068.209 1067.499 1066.8 1066.104 1065.418 1064.729 1064.035 1063.329 1062.628 1061.942 1061.271 1060.602 1059.934 1059.232 1058.46 1057.701 1056.986 1056.346 1055.701 1055.038 1054.362 1053.689 1053.002 1052.299 1051.554 1050.79 1049.995 1049.166 1048.296 1047.4 1046.486 1045.565 1044.621 1043.668 1042.706 1041.756 1040.798 1039.837 1038.878 1037.931 1036.992 1036.058 1035.136 1034.224 1033.324 1032.42 1031.523 1030.619 1029.706 1028.782 1027.857 1026.941 1026.03 1025.126 1024.225 1023.318 1022.394 1021.447 1020.492 1019.532 1018.575 1017.62 1016.671 1015.697 1014.712 1013.726 1012.765 1011.801 1010.825 1009.821 1008.809 1007.825 1006.874 1005.941 1004.972 1003.998 1003.012 1002.022 1000.994 999.9263 998.8191 997.6841 996.5362 995.3807 994.196 993.0029 991.7938 990.6126 989.4393 988.2878 987.1465 986.0169 984.9023 983.8017 982.7176 981.6432 980.5406 979.4111 978.2645 977.1598 976.0958 975.0669 974.0303 972.9091 971.6688 970.3115 968.9017 967.4653 966.0231 964.5607
1264.315 1263.316 1262.308 1261.281 1260.247 1259.194 1258.122 1257.004 1255.85 1254.708 1253.582 1252.468 1251.327 1250.172 1249.02 1247.888 1246.758 1245.606 1244.418 1243.207 1241.981 1240.746 1239.514 1238.315 1237.2 1236.237 1235.447 1234.779 1234.12 1233.381 1232.517 1231.53 1230.437 1229.265 1228.046 1226.856 1226.043 1225.745 1225.94 1226.269 1226.661 1227.001 1227.299 1227.471 1227.566 1227.278 1226.682 1225.932 1225.442 1225.1 1224.808 1224.566 1224.258 1223.841 1223.207 1222.511 1221.788 1221.128 1220.479 1219.869 1219.092 1218.195 1217.212 1216.269 1215.421 1214.613 1213.903 1213.284 1212.731 1212.205 1211.728 1211.29 1210.894 1210.479 1210.098 1209.704 1209.328 1208.916 1208.502 1208.058 1207.593 1207.155 1206.719 1206.295 1205.792 1205.238 1204.638 1204.023 1203.378 1202.674 1201.919 1201.108 1200.298 1199.439 1198.61 1197.848 1197.231 1196.709 1196.22 1195.739 1195.259 1194.837 1194.443 1194.084 1193.607 1192.959 1192.197 1191.38 1190.581 1189.742 1188.862 1187.968 1187.073 1186.198 1185.381 1184.605 1183.829 1183.002 1182.143 1181.322 1180.533 1179.77 1179.013 1178.254 1177.492 1176.713 1175.93 1175.162 1174.436 1173.773 1173.126 1172.464 1171.775 1171.089 1170.435 1169.777 1169.041 1168.261 1167.375 1166.477 1165.476 1164.532 1163.646 1162.979 1162.408 1161.867 1161.198 1160.442 1159.657 1158.931 1158.268 1157.653 1156.943 1156.141 1155.265 1154.443 1153.665 1152.906 1152.158 1151.407 1150.685 1149.961 1149.244 1148.513 1147.77 1147.012 1146.263 1145.514 1144.783 1144.066 1143.397 1142.75 1142.117 1141.465 1140.81 1140.158 1139.44 1138.736 1138.06 1137.451 1136.822 1136.136 1135.431 1134.752 1134.111 1133.512 1132.916 1132.396 1131.875 1131.358 1130.773 1130.198 1129.629 1129.061 1128.489 1127.902 1127.301 1126.696 1126.094 1125.488 1124.872 1124.245 1123.612 1122.971 1122.327 1121.676 1121.032 1120.394 1119.777 1119.131 1118.478 1117.786 1117.104 1116.433 1115.83 1115.214 1114.603 1114.03 1113.491 1112.918 1112.246 1111.593 1110.987 1110.407 1109.814 1109.208 1108.605 1108.009 1107.413 1106.84 1106.317 1105.857 1105.433 1104.986 1104.509 1104.004 1103.496 1102.986 1102.477 1101.978 1101.485 1100.991 1100.488 1099.977 1099.45 1098.907 1098.341 1097.762 1097.176 1096.587 1095.997 1095.4 1094.794 1094.182 1093.582 1092.998 1092.423 1091.848 1091.269 1090.694 1090.121 1089.539 1088.946 1088.27 1087.528 1086.707 1085.962 1085.289 1084.706 1084.133 1083.569 1083.01 1082.454 1081.894 1081.334 1080.748 1080.172 1079.613 1079.086 1078.577 1078.08 1077.607 1077.146 1076.696 1076.256 1075.825 1075.389 1074.886 1074.3 1073.637 1072.963 1072.289 1071.603 1070.893 1070.182 1069.478 1068.792 1068.098 1067.399 1066.696 1065.989 1065.289 1064.591 1063.897 1063.209 1062.527 1061.859 1061.192 1060.528 1059.845 1059.141 1058.381 1057.649 1056.965 1056.321 1055.678 1055.003 1054.336 1053.671 1052.992 1052.296 1051.557 1050.797 1050.011 1049.195 1048.34 1047.443 1046.521 1045.586 1044.654 1043.716 1042.773 1041.821 1040.863 1039.903 1038.952 1038.009 1037.075 1036.146 1035.223 1034.319 1033.427 1032.539 1031.653 1030.759 1029.863 1028.95 1028.041 1027.137 1026.239 1025.341 1024.443 1023.54 1022.62 1021.678 1020.708 1019.732 1018.76 1017.804 1016.85 1015.856 1014.852 1013.845 1012.886 1011.929 1010.99 1010.006 1008.979 1007.969 1006.989 1006.047 1005.075 1004.103 1003.133 1002.131 1001.099 1000.038 998.9531 997.8429 996.7094 995.5696 994.4279 993.2733 992.103 990.9192 989.7536 988.608 987.4854 986.3745 985.278 984.1957 983.1259 982.0671 981.0202 979.9526 978.8712 977.7986 976.7781 975.8027 974.7906 973.6718 972.4001 971.0175 969.5716 968.117 966.6548 965.1912
1262.063 1260.985 1259.909 1258.828 1257.743 1256.644 1255.52 1254.359 1253.202 1252.069 1250.963 1249.843 1248.679 1247.492 1246.31 1245.156 1244.002 1242.818 1241.599 1240.342 1239.055 1237.737 1236.385 1235.027 1233.73 1232.642 1231.847 1231.294 1230.815 1230.257 1229.567 1228.743 1227.813 1226.804 1225.756 1224.734 1224.043 1223.798 1223.987 1224.301 1224.702 1225.061 1225.38 1225.559 1225.675 1225.604 1225.241 1224.633 1224.019 1223.534 1223.178 1222.891 1222.541 1222.084 1221.47 1220.805 1220.212 1219.668 1219.098 1218.451 1217.655 1216.743 1215.775 1214.862 1214.066 1213.287 1212.552 1211.891 1211.304 1210.757 1210.297 1209.837 1209.42 1208.958 1208.564 1208.201 1207.861 1207.453 1206.969 1206.455 1205.993 1205.615 1205.235 1204.793 1204.263 1203.69 1203.111 1202.5 1201.861 1201.147 1200.408 1199.647 1198.946 1198.211 1197.467 1196.732 1196.1 1195.54 1194.986 1194.44 1193.986 1193.626 1193.332 1192.936 1192.424 1191.749 1191.007 1190.226 1189.446 1188.653 1187.794 1186.932 1186.068 1185.23 1184.441 1183.665 1182.909 1182.089 1181.258 1180.423 1179.62 1178.845 1178.093 1177.345 1176.601 1175.857 1175.111 1174.373 1173.671 1173.014 1172.377 1171.72 1171.053 1170.406 1169.776 1169.147 1168.48 1167.784 1166.982 1166.169 1165.249 1164.356 1163.448 1162.72 1162.11 1161.504 1160.809 1160.039 1159.321 1158.661 1158.056 1157.402 1156.695 1155.897 1155.072 1154.232 1153.44 1152.705 1151.998 1151.28 1150.534 1149.792 1149.065 1148.346 1147.616 1146.875 1146.128 1145.376 1144.642 1143.933 1143.281 1142.642 1142.011 1141.361 1140.709 1140.049 1139.357 1138.678 1138.018 1137.385 1136.781 1136.123 1135.451 1134.721 1134.052 1133.421 1132.831 1132.312 1131.802 1131.302 1130.738 1130.173 1129.609 1129.044 1128.467 1127.875 1127.27 1126.666 1126.067 1125.465 1124.857 1124.229 1123.594 1122.961 1122.327 1121.691 1121.042 1120.407 1119.786 1119.135 1118.456 1117.751 1117.072 1116.415 1115.802 1115.183 1114.57 1113.973 1113.47 1112.931 1112.328 1111.635 1110.971 1110.334 1109.721 1109.132 1108.569 1108.012 1107.442 1106.886 1106.38 1105.916 1105.447 1104.956 1104.447 1103.939 1103.434 1102.926 1102.418 1101.907 1101.401 1100.894 1100.383 1099.864 1099.335 1098.794 1098.234 1097.662 1097.082 1096.492 1095.896 1095.29 1094.682 1094.082 1093.494 1092.915 1092.335 1091.754 1091.173 1090.596 1090.02 1089.447 1088.856 1088.247 1087.487 1086.668 1085.85 1085.182 1084.592 1084.022 1083.455 1082.892 1082.332 1081.779 1081.207 1080.63 1080.041 1079.488 1078.949 1078.435 1077.933 1077.452 1076.986 1076.532 1076.089 1075.652 1075.21 1074.706 1074.128 1073.48 1072.822 1072.168 1071.501 1070.804 1070.076 1069.352 1068.651 1067.968 1067.282 1066.59 1065.868 1065.155 1064.445 1063.768 1063.098 1062.433 1061.77 1061.089 1060.41 1059.688 1058.975 1058.243 1057.559 1056.931 1056.307 1055.67 1054.983 1054.305 1053.642 1052.972 1052.283 1051.557 1050.803 1050.025 1049.221 1048.369 1047.479 1046.555 1045.628 1044.698 1043.763 1042.818 1041.864 1040.904 1039.951 1039.007 1038.073 1037.144 1036.221 1035.312 1034.418 1033.536 1032.651 1031.774 1030.89 1030.002 1029.105 1028.212 1027.324 1026.436 1025.549 1024.656 1023.751 1022.831 1021.886 1020.916 1019.93 1018.95 1017.979 1017.008 1015.995 1014.977 1013.964 1012.994 1012.033 1011.08 1010.135 1009.113 1008.12 1007.101 1006.156 1005.195 1004.234 1003.25 1002.229 1001.194 1000.145 999.0795 997.9923 996.8844 995.7579 994.6298 993.5038 992.3694 991.2214 990.0619 988.921 987.8021 986.7078 985.626 984.5565 983.4998 982.4564 981.4276 980.4135 979.3856 978.3706 977.3862 976.4358 975.4721 974.3686 973.0995 971.6736 970.1978 968.7285 967.2618 965.8201
1259.819 1258.684 1257.547 1256.41 1255.277 1254.122 1252.963 1251.781 1250.637 1249.495 1248.382 1247.226 1246.045 1244.861 1243.676 1242.506 1241.319 1240.12 1238.888 1237.615 1236.294 1234.922 1233.482 1231.995 1230.503 1229.282 1228.496 1228.112 1227.835 1227.446 1226.913 1226.252 1225.5 1224.69 1223.862 1223.104 1222.569 1222.351 1222.423 1222.647 1223.008 1223.357 1223.67 1223.835 1223.942 1223.986 1223.834 1223.451 1222.827 1222.16 1221.657 1221.288 1220.941 1220.445 1219.848 1219.298 1218.795 1218.316 1217.73 1217.074 1216.334 1215.413 1214.453 1213.492 1212.721 1211.971 1211.263 1210.576 1209.944 1209.381 1208.888 1208.415 1207.952 1207.518 1207.114 1206.753 1206.38 1205.973 1205.498 1204.985 1204.548 1204.177 1203.797 1203.334 1202.801 1202.247 1201.673 1201.069 1200.423 1199.727 1199.027 1198.344 1197.719 1197.089 1196.432 1195.743 1195.096 1194.499 1193.93 1193.399 1192.956 1192.622 1192.258 1191.82 1191.268 1190.645 1189.921 1189.16 1188.393 1187.634 1186.829 1185.979 1185.142 1184.308 1183.55 1182.772 1182.011 1181.203 1180.399 1179.59 1178.78 1177.999 1177.244 1176.514 1175.804 1175.096 1174.382 1173.665 1172.976 1172.321 1171.69 1171.049 1170.418 1169.789 1169.177 1168.54 1167.879 1167.188 1166.486 1165.772 1165.004 1164.145 1163.268 1162.513 1161.834 1161.162 1160.41 1159.708 1159.058 1158.454 1157.808 1157.115 1156.373 1155.627 1154.853 1154.046 1153.257 1152.526 1151.845 1151.135 1150.395 1149.64 1148.91 1148.189 1147.476 1146.755 1146.019 1145.266 1144.528 1143.815 1143.158 1142.514 1141.888 1141.251 1140.614 1139.966 1139.301 1138.649 1138.015 1137.359 1136.731 1136.09 1135.447 1134.747 1134.034 1133.372 1132.753 1132.245 1131.746 1131.255 1130.702 1130.148 1129.593 1129.022 1128.439 1127.842 1127.244 1126.642 1126.045 1125.448 1124.844 1124.221 1123.589 1122.958 1122.334 1121.704 1121.064 1120.425 1119.782 1119.115 1118.424 1117.742 1117.083 1116.43 1115.789 1115.154 1114.537 1113.919 1113.379 1112.875 1112.337 1111.689 1110.969 1110.276 1109.647 1109.076 1108.53 1107.991 1107.419 1106.871 1106.379 1105.919 1105.436 1104.902 1104.382 1103.87 1103.362 1102.856 1102.35 1101.838 1101.32 1100.802 1100.28 1099.754 1099.224 1098.683 1098.13 1097.562 1096.986 1096.396 1095.792 1095.179 1094.578 1093.989 1093.407 1092.825 1092.242 1091.663 1091.086 1090.506 1089.924 1089.337 1088.749 1088.078 1087.338 1086.52 1085.774 1085.106 1084.524 1083.94 1083.356 1082.774 1082.214 1081.64 1081.056 1080.458 1079.884 1079.342 1078.818 1078.301 1077.788 1077.295 1076.817 1076.349 1075.89 1075.435 1074.969 1074.459 1073.898 1073.288 1072.658 1072.015 1071.37 1070.687 1069.956 1069.212 1068.496 1067.819 1067.136 1066.453 1065.75 1065.042 1064.338 1063.657 1062.977 1062.298 1061.621 1060.944 1060.241 1059.496 1058.783 1058.102 1057.469 1056.89 1056.291 1055.677 1054.981 1054.296 1053.619 1052.956 1052.275 1051.563 1050.814 1050.041 1049.233 1048.389 1047.502 1046.594 1045.671 1044.739 1043.801 1042.854 1041.898 1040.94 1039.988 1039.051 1038.121 1037.197 1036.289 1035.396 1034.518 1033.638 1032.755 1031.876 1030.998 1030.124 1029.245 1028.369 1027.495 1026.623 1025.747 1024.859 1023.954 1023.025 1022.079 1021.105 1020.12 1019.127 1018.136 1017.144 1016.116 1015.092 1014.073 1013.089 1012.114 1011.164 1010.233 1009.261 1008.272 1007.256 1006.306 1005.352 1004.373 1003.354 1002.314 1001.289 1000.25 999.1971 998.1315 997.0473 995.946 994.8297 993.7154 992.606 991.4899 990.3622 989.2253 988.109 987.0156 985.9463 984.8888 983.8444 982.8143 981.7991 980.7975 979.8101 978.8356 977.878 976.9329 975.9825 974.9033 973.6442 972.2175 970.7416 969.2842 967.8211 966.3834
1257.6 1256.418 1255.222 1254.033 1252.839 1251.633 1250.442 1249.263 1248.135 1246.982 1245.816 1244.615 1243.439 1242.289 1241.127 1239.933 1238.732 1237.534 1236.322 1235.056 1233.737 1232.351 1230.891 1229.361 1227.807 1226.541 1225.768 1225.467 1225.306 1225.039 1224.626 1224.102 1223.508 1222.88 1222.246 1221.683 1221.275 1221.078 1221.077 1221.255 1221.527 1221.853 1222.109 1222.291 1222.375 1222.397 1222.35 1222.138 1221.687 1221 1220.39 1219.875 1219.457 1218.923 1218.435 1217.993 1217.584 1217.079 1216.472 1215.781 1215.03 1214.096 1213.148 1212.186 1211.412 1210.678 1209.997 1209.322 1208.673 1208.081 1207.548 1207.04 1206.576 1206.156 1205.742 1205.293 1204.85 1204.452 1204.025 1203.568 1203.141 1202.761 1202.372 1201.896 1201.391 1200.858 1200.311 1199.733 1199.096 1198.446 1197.798 1197.195 1196.594 1196.008 1195.432 1194.838 1194.207 1193.582 1193.026 1192.583 1192.168 1191.733 1191.238 1190.722 1190.193 1189.635 1188.94 1188.197 1187.409 1186.679 1185.922 1185.123 1184.296 1183.484 1182.723 1181.965 1181.177 1180.362 1179.571 1178.788 1178.006 1177.225 1176.477 1175.769 1175.093 1174.416 1173.72 1173.02 1172.346 1171.698 1171.067 1170.445 1169.832 1169.229 1168.61 1167.974 1167.313 1166.642 1165.96 1165.267 1164.529 1163.778 1162.998 1162.249 1161.499 1160.77 1160.084 1159.447 1158.856 1158.218 1157.532 1156.801 1156.071 1155.342 1154.614 1153.865 1153.127 1152.399 1151.693 1150.978 1150.244 1149.509 1148.775 1148.053 1147.342 1146.64 1145.914 1145.179 1144.431 1143.715 1143.044 1142.401 1141.777 1141.145 1140.52 1139.884 1139.232 1138.566 1137.918 1137.288 1136.678 1136.055 1135.428 1134.753 1134.066 1133.361 1132.743 1132.213 1131.723 1131.218 1130.673 1130.129 1129.568 1128.992 1128.403 1127.814 1127.223 1126.627 1126.033 1125.44 1124.837 1124.221 1123.592 1122.965 1122.337 1121.708 1121.067 1120.438 1119.77 1119.094 1118.404 1117.755 1117.113 1116.459 1115.79 1115.139 1114.507 1113.897 1113.324 1112.811 1112.286 1111.681 1110.977 1110.268 1109.624 1109.038 1108.49 1107.928 1107.355 1106.804 1106.309 1105.852 1105.371 1104.861 1104.337 1103.816 1103.297 1102.78 1102.273 1101.761 1101.241 1100.712 1100.181 1099.645 1099.113 1098.572 1098.024 1097.46 1096.881 1096.284 1095.679 1095.076 1094.485 1093.897 1093.314 1092.73 1092.151 1091.576 1091.003 1090.423 1089.827 1089.226 1088.605 1087.933 1087.192 1086.457 1085.777 1085.176 1084.55 1083.92 1083.288 1082.692 1082.095 1081.487 1080.876 1080.293 1079.732 1079.204 1078.676 1078.153 1077.63 1077.122 1076.629 1076.144 1075.67 1075.197 1074.718 1074.205 1073.659 1073.078 1072.474 1071.831 1071.173 1070.495 1069.777 1069.053 1068.335 1067.663 1066.984 1066.315 1065.634 1064.931 1064.211 1063.509 1062.818 1062.141 1061.467 1060.763 1060.036 1059.288 1058.626 1058.007 1057.414 1056.846 1056.263 1055.66 1054.981 1054.288 1053.602 1052.938 1052.264 1051.568 1050.826 1050.052 1049.239 1048.387 1047.509 1046.614 1045.704 1044.77 1043.828 1042.877 1041.927 1040.978 1040.034 1039.1 1038.166 1037.25 1036.35 1035.474 1034.597 1033.717 1032.835 1031.958 1031.091 1030.228 1029.367 1028.506 1027.65 1026.797 1025.936 1025.057 1024.152 1023.216 1022.254 1021.276 1020.287 1019.285 1018.272 1017.262 1016.224 1015.193 1014.164 1013.173 1012.204 1011.257 1010.335 1009.381 1008.409 1007.428 1006.484 1005.519 1004.497 1003.444 1002.4 1001.383 1000.353 999.3123 998.2601 997.1979 996.1198 995.0276 993.9234 992.8237 991.7307 990.6344 989.5283 988.4131 987.3162 986.2422 985.194 984.1599 983.1392 982.1308 981.1352 980.1526 979.1866 978.2332 977.287 976.3288 975.2543 974.0223 972.6306 971.1946 969.7567 968.3161 966.8893
1255.396 1254.17 1252.936 1251.687 1250.439 1249.185 1247.994 1246.821 1245.671 1244.463 1243.247 1242.028 1240.873 1239.749 1238.626 1237.456 1236.275 1235.101 1233.914 1232.685 1231.399 1230.049 1228.639 1227.181 1225.718 1224.522 1223.766 1223.443 1223.272 1223.05 1222.732 1222.311 1221.833 1221.322 1220.828 1220.388 1220.073 1219.907 1219.874 1220.019 1220.242 1220.549 1220.757 1220.915 1220.961 1220.949 1220.872 1220.733 1220.444 1219.934 1219.288 1218.631 1218.067 1217.593 1217.207 1216.854 1216.361 1215.821 1215.223 1214.585 1213.831 1212.854 1211.914 1210.952 1210.177 1209.438 1208.766 1208.116 1207.481 1206.871 1206.286 1205.742 1205.247 1204.811 1204.347 1203.848 1203.369 1202.955 1202.581 1202.181 1201.792 1201.401 1201 1200.55 1200.073 1199.568 1199.047 1198.478 1197.879 1197.282 1196.714 1196.144 1195.546 1194.961 1194.43 1193.935 1193.392 1192.828 1192.296 1191.879 1191.444 1190.915 1190.311 1189.727 1189.223 1188.701 1188.034 1187.289 1186.502 1185.787 1185.076 1184.323 1183.535 1182.732 1181.964 1181.199 1180.402 1179.582 1178.787 1178.019 1177.266 1176.521 1175.796 1175.11 1174.452 1173.789 1173.111 1172.431 1171.78 1171.142 1170.522 1169.899 1169.298 1168.696 1168.085 1167.45 1166.802 1166.144 1165.478 1164.764 1164.01 1163.249 1162.518 1161.815 1161.11 1160.448 1159.827 1159.247 1158.622 1157.951 1157.233 1156.515 1155.799 1155.086 1154.39 1153.696 1153.007 1152.284 1151.551 1150.815 1150.094 1149.378 1148.659 1147.936 1147.224 1146.524 1145.819 1145.099 1144.373 1143.651 1142.97 1142.303 1141.673 1141.038 1140.417 1139.794 1139.16 1138.512 1137.849 1137.204 1136.579 1135.974 1135.362 1134.741 1134.076 1133.395 1132.763 1132.212 1131.71 1131.191 1130.655 1130.101 1129.53 1128.946 1128.364 1127.782 1127.199 1126.613 1126.023 1125.435 1124.832 1124.222 1123.598 1122.975 1122.342 1121.702 1121.059 1120.432 1119.773 1119.091 1118.396 1117.74 1117.111 1116.472 1115.819 1115.153 1114.505 1113.878 1113.272 1112.733 1112.181 1111.617 1110.965 1110.307 1109.647 1109.029 1108.428 1107.844 1107.25 1106.686 1106.178 1105.718 1105.271 1104.794 1104.284 1103.753 1103.224 1102.704 1102.193 1101.681 1101.159 1100.627 1100.088 1099.546 1099.009 1098.467 1097.919 1097.347 1096.759 1096.16 1095.568 1094.984 1094.397 1093.808 1093.217 1092.637 1092.062 1091.491 1090.919 1090.344 1089.754 1089.12 1088.469 1087.765 1087.102 1086.431 1085.826 1085.227 1084.611 1083.944 1083.256 1082.581 1081.942 1081.305 1080.711 1080.14 1079.597 1079.065 1078.531 1077.996 1077.458 1076.936 1076.424 1075.923 1075.435 1074.953 1074.466 1073.955 1073.421 1072.851 1072.256 1071.615 1070.96 1070.288 1069.585 1068.882 1068.187 1067.521 1066.841 1066.163 1065.496 1064.803 1064.092 1063.375 1062.68 1062 1061.296 1060.583 1059.849 1059.156 1058.531 1057.947 1057.363 1056.795 1056.209 1055.617 1054.954 1054.282 1053.594 1052.923 1052.251 1051.566 1050.835 1050.061 1049.242 1048.395 1047.522 1046.634 1045.731 1044.802 1043.857 1042.9 1041.949 1041.005 1040.064 1039.133 1038.213 1037.311 1036.426 1035.542 1034.656 1033.769 1032.892 1032.024 1031.171 1030.321 1029.473 1028.625 1027.787 1026.954 1026.112 1025.248 1024.346 1023.404 1022.429 1021.435 1020.429 1019.412 1018.39 1017.367 1016.318 1015.275 1014.237 1013.259 1012.306 1011.375 1010.428 1009.475 1008.514 1007.586 1006.653 1005.661 1004.597 1003.52 1002.483 1001.474 1000.455 999.4248 998.3851 997.3362 996.2795 995.2092 994.1274 993.0362 991.9526 990.8787 989.8005 988.7106 987.6087 986.5286 985.4735 984.4464 983.4296 982.4232 981.4274 980.4452 979.4739 978.5092 977.539 976.5364 975.4539 974.2536 972.9419 971.5593 970.1595 968.7456 967.3497
1253.216 1251.939 1250.663 1249.379 1248.086 1246.815 1245.597 1244.41 1243.213 1241.978 1240.729 1239.502 1238.363 1237.256 1236.182 1235.059 1233.946 1232.818 1231.679 1230.502 1229.282 1228.012 1226.712 1225.408 1224.165 1223.119 1222.384 1221.955 1221.689 1221.459 1221.185 1220.843 1220.428 1219.989 1219.568 1219.211 1218.949 1218.812 1218.771 1218.879 1219.044 1219.377 1219.581 1219.731 1219.688 1219.635 1219.532 1219.375 1219.167 1218.816 1218.291 1217.592 1216.963 1216.471 1216.142 1215.703 1215.18 1214.626 1214.051 1213.405 1212.614 1211.675 1210.739 1209.792 1209.015 1208.269 1207.599 1206.961 1206.348 1205.726 1205.122 1204.547 1204.027 1203.502 1202.968 1202.414 1201.96 1201.557 1201.208 1200.837 1200.479 1200.105 1199.718 1199.292 1198.854 1198.375 1197.879 1197.343 1196.793 1196.249 1195.71 1195.154 1194.574 1193.998 1193.47 1193.007 1192.55 1192.067 1191.596 1191.155 1190.695 1190.151 1189.517 1188.918 1188.371 1187.873 1187.202 1186.457 1185.668 1184.97 1184.273 1183.563 1182.812 1182.043 1181.254 1180.48 1179.672 1178.862 1178.059 1177.291 1176.568 1175.858 1175.171 1174.498 1173.849 1173.197 1172.54 1171.889 1171.259 1170.636 1170.029 1169.42 1168.814 1168.213 1167.601 1166.982 1166.342 1165.697 1165.004 1164.267 1163.489 1162.766 1162.081 1161.425 1160.793 1160.194 1159.632 1159.019 1158.361 1157.658 1156.954 1156.25 1155.547 1154.863 1154.196 1153.542 1152.865 1152.154 1151.422 1150.685 1149.966 1149.253 1148.547 1147.835 1147.123 1146.422 1145.724 1145.028 1144.322 1143.611 1142.925 1142.244 1141.589 1140.932 1140.307 1139.692 1139.083 1138.454 1137.81 1137.15 1136.509 1135.888 1135.291 1134.686 1134.082 1133.423 1132.809 1132.221 1131.707 1131.177 1130.629 1130.064 1129.484 1128.906 1128.33 1127.755 1127.179 1126.601 1126.019 1125.431 1124.831 1124.223 1123.602 1122.973 1122.333 1121.684 1121.039 1120.418 1119.785 1119.129 1118.429 1117.748 1117.093 1116.468 1115.832 1115.185 1114.522 1113.878 1113.264 1112.699 1112.121 1111.538 1110.936 1110.327 1109.696 1109.024 1108.371 1107.738 1107.163 1106.617 1106.097 1105.608 1105.142 1104.695 1104.213 1103.696 1103.156 1102.629 1102.113 1101.598 1101.074 1100.542 1100.002 1099.453 1098.911 1098.365 1097.809 1097.228 1096.631 1096.037 1095.455 1094.886 1094.312 1093.723 1093.132 1092.547 1091.976 1091.403 1090.808 1090.239 1089.661 1089.067 1088.384 1087.71 1087.07 1086.463 1085.858 1085.254 1084.632 1083.939 1083.187 1082.448 1081.764 1081.146 1080.566 1080.011 1079.464 1078.919 1078.372 1077.82 1077.268 1076.725 1076.195 1075.684 1075.192 1074.71 1074.222 1073.718 1073.192 1072.635 1072.043 1071.406 1070.752 1070.086 1069.399 1068.721 1068.049 1067.394 1066.712 1066.025 1065.348 1064.663 1063.966 1063.264 1062.574 1061.867 1061.139 1060.399 1059.703 1059.046 1058.458 1057.881 1057.305 1056.735 1056.149 1055.555 1054.912 1054.258 1053.593 1052.915 1052.246 1051.561 1050.844 1050.07 1049.258 1048.413 1047.542 1046.651 1045.748 1044.828 1043.894 1042.933 1041.973 1041.015 1040.077 1039.15 1038.235 1037.347 1036.463 1035.58 1034.684 1033.801 1032.93 1032.077 1031.239 1030.402 1029.564 1028.727 1027.903 1027.087 1026.269 1025.428 1024.538 1023.587 1022.59 1021.571 1020.547 1019.518 1018.488 1017.459 1016.395 1015.339 1014.31 1013.354 1012.419 1011.471 1010.504 1009.537 1008.587 1007.672 1006.747 1005.763 1004.688 1003.609 1002.563 1001.563 1000.553 999.5345 998.5065 997.47 996.4258 995.3754 994.3137 993.2514 992.1756 991.1086 990.0408 988.9739 987.8943 986.8069 985.7432 984.7081 983.6918 982.6837 981.6824 980.6945 979.7154 978.7356 977.7502 976.7233 975.6349 974.4559 973.1959 971.8709 970.5118 969.1343 967.767
1251.068 1249.732 1248.41 1247.099 1245.808 1244.527 1243.287 1242.044 1240.802 1239.543 1238.286 1237.047 1235.904 1234.819 1233.794 1232.754 1231.718 1230.67 1229.596 1228.502 1227.374 1226.222 1225.063 1223.932 1222.869 1221.956 1221.255 1220.771 1220.444 1220.178 1219.923 1219.618 1219.262 1218.86 1218.483 1218.159 1217.927 1217.786 1217.745 1217.79 1217.922 1218.2 1218.409 1218.558 1218.514 1218.457 1218.327 1218.16 1217.943 1217.667 1217.239 1216.663 1216.065 1215.557 1215.101 1214.604 1214.061 1213.523 1212.913 1212.22 1211.451 1210.584 1209.679 1208.745 1207.926 1207.181 1206.512 1205.873 1205.252 1204.644 1204.045 1203.464 1202.88 1202.286 1201.675 1201.114 1200.669 1200.308 1199.974 1199.619 1199.272 1198.905 1198.524 1198.12 1197.718 1197.278 1196.809 1196.301 1195.798 1195.274 1194.762 1194.216 1193.671 1193.123 1192.589 1192.12 1191.729 1191.366 1190.957 1190.483 1190.016 1189.512 1188.956 1188.313 1187.708 1187.119 1186.43 1185.684 1184.911 1184.226 1183.542 1182.846 1182.128 1181.372 1180.592 1179.8 1179 1178.192 1177.39 1176.621 1175.915 1175.251 1174.596 1173.938 1173.287 1172.651 1172.02 1171.395 1170.787 1170.18 1169.585 1168.985 1168.385 1167.783 1167.175 1166.563 1165.933 1165.253 1164.529 1163.762 1163.037 1162.35 1161.717 1161.115 1160.552 1160.005 1159.411 1158.767 1158.077 1157.386 1156.695 1156.004 1155.332 1154.675 1154.034 1153.372 1152.691 1151.997 1151.294 1150.579 1149.859 1149.145 1148.443 1147.735 1147.029 1146.326 1145.637 1144.953 1144.27 1143.568 1142.884 1142.199 1141.543 1140.868 1140.222 1139.592 1138.991 1138.389 1137.764 1137.124 1136.467 1135.83 1135.213 1134.618 1134.041 1133.441 1132.841 1132.247 1131.698 1131.154 1130.593 1130.016 1129.442 1128.87 1128.299 1127.731 1127.162 1126.593 1126.018 1125.433 1124.836 1124.227 1123.604 1122.967 1122.319 1121.67 1121.031 1120.411 1119.797 1119.159 1118.486 1117.783 1117.105 1116.455 1115.837 1115.207 1114.572 1113.92 1113.297 1112.684 1112.099 1111.507 1110.924 1110.344 1109.733 1109.08 1108.377 1107.712 1107.107 1106.568 1106.045 1105.527 1105.037 1104.567 1104.105 1103.61 1103.088 1102.561 1102.038 1101.518 1100.99 1100.457 1099.916 1099.366 1098.819 1098.262 1097.694 1097.104 1096.514 1095.929 1095.351 1094.787 1094.219 1093.648 1093.056 1092.471 1091.887 1091.291 1090.673 1090.086 1089.549 1088.996 1088.371 1087.672 1087.008 1086.358 1085.751 1085.146 1084.57 1083.892 1083.123 1082.328 1081.642 1081.053 1080.478 1079.903 1079.338 1078.783 1078.224 1077.654 1077.085 1076.519 1075.968 1075.444 1074.95 1074.474 1073.991 1073.493 1072.976 1072.428 1071.846 1071.227 1070.59 1069.941 1069.264 1068.594 1067.932 1067.288 1066.594 1065.89 1065.192 1064.524 1063.858 1063.186 1062.498 1061.746 1060.975 1060.239 1059.58 1058.959 1058.378 1057.798 1057.221 1056.649 1056.07 1055.485 1054.852 1054.219 1053.571 1052.906 1052.239 1051.559 1050.853 1050.093 1049.289 1048.447 1047.572 1046.677 1045.773 1044.855 1043.927 1042.973 1041.997 1041.017 1040.058 1039.13 1038.226 1037.343 1036.465 1035.583 1034.691 1033.812 1032.954 1032.117 1031.292 1030.464 1029.634 1028.806 1027.989 1027.187 1026.391 1025.583 1024.705 1023.749 1022.72 1021.677 1020.631 1019.595 1018.561 1017.53 1016.478 1015.429 1014.415 1013.459 1012.508 1011.538 1010.559 1009.602 1008.658 1007.72 1006.78 1005.816 1004.777 1003.711 1002.655 1001.648 1000.649 999.6413 998.6246 997.5993 996.5664 995.5273 994.4917 993.4563 992.408 991.3362 990.262 989.2015 988.1443 987.0779 986.0067 984.9613 983.9288 982.9183 981.9113 980.9197 979.9315 978.9467 977.9487 976.9061 975.8068 974.6385 973.4175 972.1423 970.8358 969.4932 968.1591
1248.94 1247.56 1246.196 1244.873 1243.59 1242.319 1241.032 1239.742 1238.459 1237.194 1235.928 1234.696 1233.548 1232.486 1231.499 1230.537 1229.598 1228.649 1227.683 1226.687 1225.673 1224.652 1223.646 1222.661 1221.734 1220.916 1220.261 1219.793 1219.445 1219.165 1218.872 1218.582 1218.261 1217.922 1217.568 1217.261 1217.015 1216.864 1216.788 1216.789 1216.851 1217.066 1217.274 1217.44 1217.441 1217.38 1217.269 1217.089 1216.861 1216.557 1216.205 1215.737 1215.324 1214.817 1214.24 1213.618 1213.044 1212.517 1211.857 1211.117 1210.36 1209.558 1208.681 1207.782 1206.93 1206.185 1205.503 1204.85 1204.234 1203.638 1203.057 1202.448 1201.826 1201.201 1200.582 1200.032 1199.609 1199.277 1198.965 1198.586 1198.215 1197.807 1197.428 1197.059 1196.706 1196.348 1195.906 1195.444 1194.932 1194.426 1193.922 1193.412 1192.901 1192.376 1191.881 1191.41 1191.008 1190.616 1190.248 1189.766 1189.316 1188.887 1188.454 1187.892 1187.181 1186.489 1185.718 1184.986 1184.229 1183.556 1182.888 1182.205 1181.5 1180.751 1179.981 1179.196 1178.399 1177.593 1176.784 1176.015 1175.323 1174.69 1174.073 1173.449 1172.829 1172.203 1171.576 1170.949 1170.349 1169.758 1169.171 1168.589 1167.997 1167.406 1166.798 1166.19 1165.52 1164.805 1164.044 1163.33 1162.655 1162.016 1161.436 1160.89 1160.38 1159.798 1159.17 1158.494 1157.816 1157.136 1156.455 1155.795 1155.151 1154.521 1153.867 1153.197 1152.518 1151.844 1151.169 1150.47 1149.76 1149.044 1148.341 1147.636 1146.934 1146.235 1145.548 1144.864 1144.182 1143.499 1142.827 1142.167 1141.513 1140.846 1140.17 1139.517 1138.892 1138.299 1137.702 1137.091 1136.454 1135.8 1135.16 1134.539 1133.989 1133.41 1132.833 1132.232 1131.673 1131.12 1130.544 1129.972 1129.402 1128.835 1128.271 1127.708 1127.148 1126.586 1126.021 1125.442 1124.849 1124.235 1123.605 1122.959 1122.308 1121.659 1121.024 1120.401 1119.784 1119.167 1118.523 1117.852 1117.15 1116.473 1115.826 1115.212 1114.6 1113.974 1113.34 1112.705 1112.094 1111.495 1110.911 1110.322 1109.73 1109.095 1108.437 1107.753 1107.127 1106.549 1106.022 1105.492 1104.969 1104.468 1103.991 1103.516 1103.014 1102.494 1101.966 1101.439 1100.909 1100.373 1099.831 1099.28 1098.727 1098.159 1097.579 1096.99 1096.408 1095.831 1095.255 1094.689 1094.129 1093.566 1092.99 1092.398 1091.786 1091.156 1090.519 1089.93 1089.416 1088.922 1088.361 1087.701 1086.993 1086.301 1085.65 1085.048 1084.469 1083.822 1083.074 1082.331 1081.626 1081.024 1080.411 1079.833 1079.256 1078.688 1078.111 1077.519 1076.925 1076.328 1075.751 1075.215 1074.724 1074.255 1073.779 1073.286 1072.777 1072.248 1071.689 1071.093 1070.459 1069.806 1069.132 1068.468 1067.81 1067.167 1066.465 1065.76 1065.053 1064.396 1063.74 1063.071 1062.378 1061.62 1060.852 1060.12 1059.464 1058.847 1058.267 1057.693 1057.122 1056.547 1055.976 1055.398 1054.786 1054.159 1053.529 1052.88 1052.229 1051.557 1050.865 1050.121 1049.324 1048.476 1047.593 1046.689 1045.773 1044.85 1043.927 1042.986 1042.022 1041.026 1040.046 1039.096 1038.185 1037.311 1036.443 1035.571 1034.679 1033.809 1032.966 1032.142 1031.317 1030.493 1029.669 1028.85 1028.04 1027.244 1026.456 1025.658 1024.787 1023.832 1022.8 1021.743 1020.686 1019.637 1018.603 1017.574 1016.548 1015.518 1014.521 1013.54 1012.564 1011.582 1010.611 1009.666 1008.711 1007.747 1006.788 1005.836 1004.834 1003.794 1002.742 1001.735 1000.742 999.7453 998.7393 997.7245 996.7018 995.68 994.6624 993.652 992.6201 991.5643 990.4824 989.4139 988.3618 987.3087 986.249 985.1957 984.1559 983.1358 982.121 981.1263 980.1412 979.1565 978.1462 977.0865 975.9727 974.8139 973.6151 972.3859 971.1268 969.8414 968.5552
1246.805 1245.421 1244.044 1242.712 1241.432 1240.15 1238.852 1237.531 1236.236 1234.954 1233.68 1232.446 1231.284 1230.237 1229.297 1228.439 1227.611 1226.783 1225.934 1225.072 1224.183 1223.3 1222.407 1221.537 1220.707 1219.982 1219.408 1219.015 1218.713 1218.397 1218.047 1217.703 1217.416 1217.12 1216.818 1216.508 1216.25 1216.052 1215.943 1215.893 1215.929 1216.033 1216.207 1216.42 1216.493 1216.482 1216.327 1216.165 1215.897 1215.577 1215.215 1214.889 1214.556 1214.131 1213.487 1212.819 1212.147 1211.537 1210.828 1210.096 1209.347 1208.595 1207.742 1206.875 1206.01 1205.27 1204.575 1203.934 1203.313 1202.725 1202.119 1201.504 1200.875 1200.265 1199.683 1199.173 1198.769 1198.461 1198.141 1197.765 1197.382 1196.933 1196.526 1196.129 1195.846 1195.51 1195.09 1194.608 1194.113 1193.626 1193.154 1192.676 1192.195 1191.712 1191.255 1190.817 1190.395 1189.979 1189.558 1189.057 1188.623 1188.265 1187.958 1187.457 1186.766 1185.973 1185.169 1184.39 1183.649 1182.962 1182.311 1181.64 1180.943 1180.203 1179.445 1178.672 1177.892 1177.096 1176.295 1175.524 1174.836 1174.225 1173.638 1173.045 1172.449 1171.843 1171.212 1170.578 1169.966 1169.382 1168.802 1168.231 1167.653 1167.068 1166.466 1165.874 1165.229 1164.471 1163.696 1162.966 1162.342 1161.763 1161.236 1160.742 1160.19 1159.575 1158.912 1158.246 1157.577 1156.906 1156.256 1155.622 1155.004 1154.361 1153.698 1153.026 1152.363 1151.707 1151.039 1150.355 1149.654 1148.946 1148.241 1147.538 1146.84 1146.147 1145.464 1144.774 1144.094 1143.42 1142.77 1142.128 1141.495 1140.843 1140.17 1139.485 1138.829 1138.209 1137.622 1137.039 1136.432 1135.785 1135.131 1134.492 1133.932 1133.37 1132.813 1132.22 1131.649 1131.085 1130.517 1129.946 1129.379 1128.815 1128.254 1127.695 1127.14 1126.585 1126.028 1125.46 1124.869 1124.248 1123.604 1122.951 1122.297 1121.647 1121.016 1120.392 1119.774 1119.152 1118.535 1117.894 1117.225 1116.522 1115.846 1115.201 1114.61 1114.008 1113.386 1112.731 1112.094 1111.483 1110.889 1110.291 1109.69 1109.102 1108.489 1107.842 1107.204 1106.612 1106.066 1105.517 1104.975 1104.445 1103.941 1103.448 1102.949 1102.43 1101.896 1101.365 1100.831 1100.293 1099.748 1099.197 1098.64 1098.062 1097.476 1096.886 1096.312 1095.736 1095.16 1094.596 1094.036 1093.481 1092.91 1092.315 1091.674 1091.02 1090.386 1089.794 1089.301 1088.808 1088.314 1087.695 1087.041 1086.316 1085.639 1084.979 1084.385 1083.753 1083.078 1082.386 1081.702 1081.042 1080.392 1079.771 1079.185 1078.605 1078.009 1077.399 1076.786 1076.175 1075.582 1075.036 1074.541 1074.074 1073.598 1073.105 1072.597 1072.074 1071.534 1070.961 1070.345 1069.709 1069.042 1068.38 1067.699 1067.042 1066.331 1065.626 1064.919 1064.272 1063.608 1062.93 1062.236 1061.529 1060.81 1060.075 1059.382 1058.739 1058.164 1057.595 1057.022 1056.441 1055.864 1055.286 1054.689 1054.079 1053.455 1052.825 1052.188 1051.542 1050.872 1050.149 1049.355 1048.493 1047.594 1046.674 1045.746 1044.813 1043.88 1042.949 1042.003 1041.032 1040.04 1039.072 1038.154 1037.286 1036.429 1035.553 1034.67 1033.803 1032.966 1032.139 1031.311 1030.485 1029.667 1028.86 1028.058 1027.259 1026.459 1025.649 1024.775 1023.828 1022.811 1021.771 1020.711 1019.656 1018.613 1017.598 1016.596 1015.592 1014.589 1013.583 1012.593 1011.617 1010.659 1009.705 1008.742 1007.771 1006.8 1005.855 1004.886 1003.883 1002.846 1001.826 1000.836 999.8465 998.851 997.8458 996.8386 995.8329 994.8323 993.8242 992.8074 991.7661 990.7068 989.6259 988.5659 987.5078 986.4607 985.4088 984.3613 983.3343 982.3187 981.3327 980.3509 979.3606 978.3245 977.2463 976.1255 974.9827 973.8069 972.6074 971.3945 970.1779 968.9395
1244.668 1243.302 1241.952 1240.625 1239.322 1238.028 1236.75 1235.467 1234.174 1232.88 1231.589 1230.341 1229.129 1228.088 1227.219 1226.502 1225.811 1225.105 1224.387 1223.659 1222.897 1222.114 1221.304 1220.522 1219.792 1219.18 1218.712 1218.399 1218.121 1217.808 1217.406 1217.028 1216.699 1216.437 1216.169 1215.898 1215.618 1215.388 1215.211 1215.145 1215.154 1215.231 1215.369 1215.525 1215.609 1215.577 1215.473 1215.302 1215.055 1214.714 1214.409 1214.113 1213.828 1213.412 1212.796 1212.08 1211.315 1210.615 1209.882 1209.155 1208.412 1207.664 1206.823 1205.989 1205.152 1204.423 1203.736 1203.098 1202.481 1201.862 1201.238 1200.626 1200.025 1199.452 1198.915 1198.444 1198.064 1197.754 1197.461 1197.081 1196.701 1196.189 1195.758 1195.362 1195.118 1194.785 1194.342 1193.837 1193.36 1192.908 1192.466 1192.017 1191.573 1191.13 1190.709 1190.272 1189.818 1189.33 1188.847 1188.301 1187.885 1187.543 1187.306 1186.914 1186.331 1185.581 1184.745 1183.907 1183.143 1182.447 1181.813 1181.148 1180.457 1179.728 1178.985 1178.229 1177.473 1176.707 1175.93 1175.168 1174.474 1173.859 1173.286 1172.717 1172.146 1171.531 1170.889 1170.241 1169.632 1169.049 1168.473 1167.913 1167.346 1166.774 1166.175 1165.587 1164.958 1164.267 1163.492 1162.748 1162.115 1161.594 1161.115 1160.578 1159.984 1159.335 1158.68 1158.022 1157.361 1156.72 1156.096 1155.488 1154.853 1154.195 1153.53 1152.876 1152.228 1151.571 1150.909 1150.233 1149.542 1148.839 1148.139 1147.444 1146.749 1146.061 1145.38 1144.697 1144.023 1143.358 1142.724 1142.096 1141.462 1140.826 1140.169 1139.474 1138.802 1138.148 1137.561 1136.969 1136.379 1135.749 1135.101 1134.452 1133.88 1133.308 1132.755 1132.171 1131.607 1131.049 1130.488 1129.923 1129.357 1128.794 1128.234 1127.678 1127.126 1126.576 1126.027 1125.471 1124.881 1124.255 1123.599 1122.941 1122.286 1121.636 1121.003 1120.377 1119.758 1119.136 1118.519 1117.908 1117.268 1116.597 1115.891 1115.218 1114.583 1113.995 1113.387 1112.756 1112.097 1111.46 1110.84 1110.243 1109.652 1109.065 1108.481 1107.865 1107.264 1106.664 1106.099 1105.532 1104.977 1104.436 1103.906 1103.391 1102.876 1102.358 1101.826 1101.294 1100.76 1100.22 1099.669 1099.114 1098.553 1097.974 1097.385 1096.795 1096.218 1095.642 1095.067 1094.506 1093.948 1093.39 1092.83 1092.248 1091.607 1090.948 1090.31 1089.737 1089.249 1088.761 1088.268 1087.692 1087.08 1086.369 1085.635 1084.916 1084.287 1083.675 1083.057 1082.414 1081.746 1081.068 1080.388 1079.741 1079.125 1078.532 1077.921 1077.3 1076.682 1076.068 1075.473 1074.922 1074.418 1073.939 1073.453 1072.952 1072.441 1071.916 1071.38 1070.821 1070.241 1069.641 1069 1068.347 1067.669 1067.01 1066.292 1065.585 1064.847 1064.175 1063.468 1062.782 1062.089 1061.434 1060.764 1060.062 1059.338 1058.663 1058.056 1057.488 1056.917 1056.327 1055.738 1055.153 1054.57 1053.971 1053.36 1052.738 1052.116 1051.491 1050.851 1050.146 1049.351 1048.467 1047.543 1046.609 1045.67 1044.732 1043.797 1042.865 1041.938 1040.995 1040.031 1039.066 1038.143 1037.266 1036.404 1035.526 1034.647 1033.784 1032.942 1032.107 1031.275 1030.45 1029.64 1028.84 1028.041 1027.228 1026.406 1025.564 1024.682 1023.744 1022.763 1021.739 1020.694 1019.637 1018.606 1017.595 1016.598 1015.597 1014.594 1013.598 1012.613 1011.648 1010.681 1009.719 1008.75 1007.783 1006.831 1005.888 1004.937 1003.953 1002.94 1001.928 1000.932 999.9475 998.9597 997.9683 996.9752 995.9847 994.9868 993.9801 992.9632 991.9436 990.9058 989.8471 988.7773 987.6978 986.6378 985.587 984.5706 983.5436 982.536 981.5352 980.5518 979.538 978.4813 977.3913 976.2787 975.1503 973.9958 972.8269 971.6602 970.5063 969.3056
