ncols         408
nrows         30
xllcorner     389056.008894
yllcorner     7585120.15177
cellsize      5
NODATA_value  -9999
1311.119 1310.066 1308.5 1307.198 1305.63 1303.962 1302.559 1301.413 1300.116 1298.692 1297.334 1296.407 1295.929 1295.624 1295.197 1294.663 1293.923 1293.196 1292.538 1291.854 1291.167 1290.44 1289.615 1288.744 1287.857 1286.938 1286.083 1285.302 1284.586 1283.895 1283.197 1282.557 1281.415 1280.397 1279.619 1279.108 1278.703 1278.066 1277.439 1276.654 1275.844 1275.109 1274.392 1273.432 1272.575 1271.754 1270.838 1269.906 1268.984 1268.169 1267.575 1266.864 1266.161 1265.459 1264.676 1263.839 1262.972 1261.979 1261.16 1260.271 1259.67 1259.088 1257.758 1256.51 1255.418 1254.373 1253.274 1252.062 1250.931 1249.903 1248.855 1247.919 1247.018 1246.129 1245.324 1244.742 1243.939 1243.376 1242.593 1241.626 1240.6 1239.573 1238.519 1237.475 1236.474 1235.448 1234.401 1233.357 1232.28 1231.114 1229.909 1228.698 1227.571 1226.467 1225.254 1224.048 1222.793 1221.593 1220.451 1219.352 1218.282 1217.166 1215.824 1214.288 1212.66 1210.996 1209.305 1207.782 1206.278 1204.761 1203.396 1202.248 1201.176 1200.071 1198.999 1198.052 1197.375 1196.805 1196.221 1195.645 1195.04 1194.518 1193.96 1193.332 1192.768 1192.176 1191.561 1190.886 1190.151 1189.423 1188.707 1187.902 1187.065 1186.201 1185.301 1184.378 1183.434 1182.467 1181.487 1180.51 1179.524 1178.461 1177.276 1176.063 1174.854 1173.635 1172.399 1171.151 1169.905 1168.7 1167.604 1166.593 1165.608 1164.627 1163.625 1162.664 1161.734 1160.851 1159.999 1159.146 1158.35 1157.526 1156.701 1155.89 1155.077 1154.254 1153.409 1152.536 1151.61 1150.536 1149.208 1147.879 1146.609 1145.401 1144.226 1143.073 1141.99 1140.982 1140.092 1139.216 1138.318 1137.451 1136.584 1135.682 1134.75 1133.856 1132.96 1132.082 1131.213 1130.33 1129.48 1128.514 1127.464 1126.359 1125.22 1124.05 1122.856 1121.648 1120.433 1119.196 1117.806 1116.396 1115.029 1113.703 1112.434 1111.287 1110.302 1109.369 1108.437 1107.507 1106.569 1105.618 1104.654 1103.68 1102.715 1101.77 1100.891 1100.04 1099.209 1098.384 1097.546 1096.714 1095.86 1094.983 1094.103 1093.232 1092.366 1091.514 1090.623 1089.698 1088.77 1087.836 1086.893 1085.895 1084.921 1083.879 1082.788 1081.683 1080.717 1079.781 1078.795 1077.819 1076.851 1075.91 1075.004 1074.125 1073.246 1072.417 1071.507 1070.62 1069.726 1068.85 1067.958 1067.057 1066.242 1065.387 1064.544 1063.618 1062.759 1061.844 1060.934 1060.013 1059.056 1058.056 1056.998 1055.869 1054.67 1053.408 1052.107 1050.789 1049.648 1048.916 1048.181 1047.455 1046.745 1046.087 1045.51 1044.73 1044.115 1043.506 1042.835 1042.217 1041.58 1040.927 1040.276 1039.588 1038.933 1038.23 1037.498 1036.845 1036.203 1035.579 1035.117 1034.518 1033.818 1032.991 1032.385 1031.733 1031.05 1030.318 1029.56 1028.761 1027.944 1027.146 1026.283 1025.529 1024.797 1024.075 1023.36 1022.552 1021.789 1021.009 1020.224 1019.362 1018.529 1017.711 1016.86 1015.986 1015.061 1014.11 1013.183 1012.232 1011.256 1010.304 1009.3 1008.304 1007.19 1006.304 1005.396 1004.422 1003.464 1002.557 1001.507 1000.428 999.3011 998.1254 996.91 995.6854 994.4055 993.1588 991.92 990.7067 989.6249 988.6216 987.6794 986.7709 985.8849 985.0499 984.1776 983.0486 982.4084 981.5038 980.582 979.61 978.4358 977.4123 976.3516 975.2559 974.1458 973.0521 971.9979 970.9597 969.9598 969.036 968.1631 967.3032 966.4448 965.6329 964.81 963.9056 963.0784 962.2413 961.2036 960.5372 959.6594 958.7867 957.9276 957.067 956.1832 955.2629 954.2997 953.2647 952.1628 950.9652 949.8237 948.7325 947.7112 946.7976 945.8861 944.947 944.0089 943.0269 942.0171 940.9899 939.9407 938.8337 937.7254 936.6152 935.4234 934.1997 932.9276 931.6021 930.2618 929.0723 928.3022 927.5194 926.8015 925.9514
1315.678 1314.417 1313.402 1311.99 1310.454 1308.733 1307.055 1305.531 1303.794 1302.042 1300.073 1298.896 1298.799 1298.613 1298.222 1297.589 1296.881 1296.024 1295.287 1294.648 1293.994 1293.233 1292.383 1291.478 1290.548 1289.572 1288.685 1287.877 1287.054 1286.413 1285.8 1284.942 1283.957 1283.031 1282.268 1281.641 1280.993 1280.382 1279.625 1279.113 1278.287 1277.394 1276.506 1275.717 1274.777 1273.754 1272.806 1271.713 1270.796 1270.08 1269.463 1268.837 1268.132 1267.415 1266.653 1265.897 1265.078 1264.201 1263.318 1262.55 1261.904 1261.244 1260.151 1259.055 1258.121 1257.239 1256.094 1254.818 1253.618 1252.454 1251.319 1250.286 1249.225 1248.164 1247.305 1246.6 1245.925 1245.197 1244.48 1243.569 1242.6 1241.652 1240.663 1239.696 1238.73 1237.889 1236.991 1235.906 1234.703 1233.489 1232.278 1231.012 1229.892 1228.726 1227.549 1226.313 1225.103 1223.92 1222.804 1221.735 1220.725 1219.761 1218.437 1216.81 1215.202 1213.56 1211.92 1210.355 1208.833 1207.344 1205.905 1204.577 1203.264 1201.867 1200.421 1199.186 1198.509 1197.916 1197.305 1196.586 1195.931 1195.354 1194.679 1194.09 1193.509 1192.909 1192.294 1191.654 1191.022 1190.367 1189.718 1189.025 1188.185 1187.32 1186.433 1185.536 1184.626 1183.703 1182.771 1181.839 1180.91 1179.878 1178.687 1177.484 1176.285 1175.073 1173.834 1172.586 1171.312 1170.028 1168.972 1168.017 1167.051 1166.075 1165.08 1164.117 1163.178 1162.25 1161.362 1160.497 1159.602 1158.729 1157.887 1157.062 1156.234 1155.367 1154.467 1153.513 1152.488 1151.316 1150.019 1148.773 1147.612 1146.462 1145.309 1144.194 1143.115 1142.105 1141.144 1140.203 1139.339 1138.453 1137.548 1136.633 1135.749 1134.871 1133.994 1133.133 1132.256 1131.416 1130.565 1129.625 1128.556 1127.458 1126.35 1125.232 1124.108 1122.967 1121.832 1120.659 1119.305 1117.934 1116.591 1115.292 1114.052 1112.906 1111.868 1110.885 1109.923 1108.978 1108.023 1107.055 1106.07 1105.085 1104.113 1103.159 1102.262 1101.415 1100.578 1099.741 1098.902 1098.047 1097.187 1096.31 1095.424 1094.544 1093.667 1092.812 1091.939 1091.069 1090.174 1089.247 1088.318 1087.418 1086.478 1085.507 1084.456 1083.38 1082.319 1081.253 1080.191 1079.134 1078.083 1077.096 1076.171 1075.282 1074.415 1073.515 1072.644 1071.719 1070.78 1069.872 1068.979 1068.052 1067.157 1066.374 1065.469 1064.656 1063.769 1062.901 1062.036 1061.139 1060.231 1059.29 1058.293 1057.181 1055.948 1054.608 1053.274 1051.966 1050.803 1049.872 1049.019 1048.206 1047.471 1046.776 1046.073 1045.393 1044.76 1044.077 1043.42 1042.778 1042.129 1041.465 1040.78 1040.074 1039.412 1038.754 1038.052 1037.328 1036.711 1036.085 1035.479 1034.952 1034.223 1033.636 1033.03 1032.389 1031.639 1030.916 1030.136 1029.334 1028.514 1027.628 1026.846 1026.109 1025.416 1024.754 1023.986 1023.283 1022.541 1021.747 1020.914 1020.046 1019.191 1018.361 1017.503 1016.61 1015.638 1014.684 1013.702 1012.729 1011.743 1010.75 1009.723 1008.614 1007.539 1006.544 1005.729 1004.706 1003.713 1002.72 1001.791 1000.694 999.567 998.401 997.183 995.9102 994.6146 993.3234 992.0472 990.7763 989.6507 988.6904 987.7562 986.8302 985.9677 985.1011 983.9474 983.0809 982.2248 981.5323 980.6076 979.4788 978.5079 977.4832 976.41 975.3205 974.2263 973.1517 972.1187 971.0762 970.0788 969.2003 968.3533 967.5283 966.7285 965.9514 965.0967 964.2823 963.5486 962.687 961.8871 960.9734 960.2366 959.3994 958.6038 957.8162 956.9868 956.0958 955.1516 954.1071 952.8859 951.7466 950.562 949.4394 948.5326 947.7244 946.889 946.0483 945.174 944.2333 943.2247 942.1927 941.126 940.0399 938.9307 937.7759 936.5804 935.3423 934.0498 932.7034 931.2947 930.0342 929.2419 928.5292 927.7046 -9999
1320.904 1319.666 1318.376 1317.151 1315.468 1313.878 1312.188 1310.103 1308.205 1306.222 1304.232 1302.947 1302.608 1302.26 1301.86 1301.127 1300.214 1299.156 1298.34 1297.83 1297.15 1296.297 1295.328 1294.372 1293.269 1292.188 1291.215 1290.342 1289.48 1288.886 1288.457 1287.623 1286.606 1285.734 1284.99 1284.315 1283.588 1282.728 1282.078 1281.348 1280.765 1279.487 1278.6 1277.864 1276.93 1275.794 1274.561 1273.531 1272.592 1271.823 1271.277 1270.708 1270.069 1269.379 1268.733 1268.033 1267.194 1266.294 1265.409 1264.536 1263.792 1263.04 1262.18 1261.286 1260.561 1260.052 1258.8 1257.494 1256.335 1255.272 1254.125 1252.95 1251.723 1250.404 1249.501 1248.776 1248.036 1247.193 1246.287 1245.48 1244.517 1243.545 1242.68 1241.761 1240.923 1240.228 1239.597 1238.289 1237.043 1235.869 1234.665 1233.481 1232.287 1231.084 1229.842 1228.574 1227.347 1226.173 1225.047 1223.993 1222.953 1221.944 1220.666 1219.181 1217.693 1216.177 1214.589 1212.995 1211.459 1209.952 1208.496 1207.054 1205.57 1203.961 1202.3 1200.893 1200.066 1199.275 1198.488 1197.68 1196.894 1196.209 1195.504 1194.883 1194.27 1193.673 1193.073 1192.467 1191.831 1191.251 1190.663 1190.084 1189.207 1188.359 1187.514 1186.665 1185.771 1184.891 1183.999 1183.087 1182.133 1181.117 1180.009 1178.859 1177.698 1176.515 1175.312 1174.085 1172.83 1171.597 1170.51 1169.516 1168.539 1167.553 1166.584 1165.613 1164.644 1163.685 1162.748 1161.828 1160.893 1159.95 1159.073 1158.257 1157.405 1156.504 1155.547 1154.527 1153.424 1152.225 1150.944 1149.768 1148.663 1147.531 1146.418 1145.311 1144.24 1143.216 1142.19 1141.223 1140.324 1139.486 1138.521 1137.642 1136.737 1135.893 1135.032 1134.154 1133.314 1132.463 1131.584 1130.638 1129.619 1128.542 1127.48 1126.4 1125.324 1124.248 1123.155 1121.987 1120.73 1119.428 1118.143 1116.875 1115.67 1114.526 1113.438 1112.437 1111.46 1110.49 1109.531 1108.538 1107.532 1106.532 1105.55 1104.568 1103.669 1102.787 1101.974 1101.145 1100.305 1099.446 1098.564 1097.681 1096.786 1095.873 1095.002 1094.131 1093.271 1092.45 1091.567 1090.684 1089.835 1088.983 1088.129 1087.213 1086.226 1085.138 1083.996 1082.852 1081.706 1080.535 1079.38 1078.314 1077.423 1076.552 1075.657 1074.756 1073.785 1072.905 1071.929 1070.989 1070.048 1069.115 1068.19 1067.327 1066.544 1065.697 1064.862 1064.034 1063.158 1062.286 1061.437 1060.552 1059.652 1058.556 1057.277 1055.923 1054.639 1053.323 1052.145 1051.052 1050.02 1049.088 1048.287 1047.554 1046.882 1046.108 1045.473 1044.656 1043.989 1043.44 1042.786 1042.124 1041.446 1040.708 1040.018 1039.391 1038.697 1037.961 1037.305 1036.686 1036.086 1035.353 1034.879 1034.315 1033.74 1033.056 1032.406 1031.696 1030.843 1030.071 1029.127 1028.271 1027.48 1026.78 1026.16 1025.456 1024.822 1024.144 1023.414 1022.617 1021.774 1020.881 1019.994 1019.156 1018.27 1017.313 1016.347 1015.362 1014.349 1013.302 1012.279 1011.24 1010.174 1009.063 1007.962 1006.894 1005.843 1005.044 1004.001 1003.012 1001.972 1000.929 999.8577 998.6785 997.4227 996.1574 994.8732 993.5617 992.2286 990.9273 989.7287 988.7899 987.8716 986.7828 986.0325 984.9218 984.004 983.1317 982.2749 981.4122 980.5385 979.5967 978.6147 977.5609 976.4817 975.4014 974.3356 973.3011 972.2435 971.2447 970.3007 969.4284 968.6121 967.8322 967.0552 966.2844 965.5035 964.7786 963.9693 963.2186 962.466 961.6644 960.7948 960.0181 959.3137 958.614 957.842 956.9974 956.0538 955.0255 953.9016 952.6328 951.4194 950.1866 949.4343 948.7086 947.9709 947.1851 946.3458 945.4484 944.4689 943.39 942.3022 941.1954 940.08 938.9492 937.7545 936.5293 935.2654 933.9691 932.6645 931.5032 930.5477 -9999 -9999 -9999
1326.185 1324.936 1323.693 1322.241 1320.887 1319.232 1317.304 1315.409 1313.193 1311.187 1309.33 1308.054 1307.278 1306.636 1305.928 1305.168 1304.117 1303.018 1302.135 1301.562 1300.781 1299.756 1298.633 1297.438 1296.141 1294.824 1293.623 1292.587 1291.735 1291.056 1290.744 1289.998 1289.043 1288.299 1287.673 1286.972 1286.143 1285.425 1284.738 1283.888 1282.986 1282.006 1281.042 1280.018 1279.002 1277.712 1276.472 1275.299 1274.259 1273.514 1272.979 1272.575 1272.008 1271.507 1270.932 1270.326 1269.499 1268.518 1267.53 1266.526 1265.619 1264.913 1264.116 1263.334 1262.592 1261.923 1261.001 1259.98 1259.013 1258.161 1257.103 1255.867 1254.543 1253.256 1252.162 1251.229 1250.343 1249.358 1248.336 1247.386 1246.367 1245.455 1244.519 1243.691 1242.93 1242.221 1241.439 1240.365 1239.19 1238.041 1236.983 1235.901 1234.68 1233.436 1232.154 1230.855 1229.563 1228.358 1227.238 1226.049 1224.956 1223.832 1222.623 1221.344 1220.072 1218.763 1217.195 1215.599 1214.03 1212.535 1211.061 1209.624 1208.042 1206.289 1204.616 1203.163 1201.972 1200.922 1199.877 1198.867 1197.901 1197.131 1196.39 1195.674 1195.056 1194.438 1193.847 1193.21 1192.616 1192.058 1191.463 1190.828 1190.093 1189.326 1188.516 1187.708 1186.88 1186.036 1185.175 1184.239 1183.314 1182.328 1181.299 1180.207 1179.089 1177.962 1176.808 1175.622 1174.41 1173.241 1172.126 1171.077 1170.072 1169.089 1168.115 1167.134 1166.139 1165.152 1164.172 1163.214 1162.255 1161.294 1160.366 1159.5 1158.628 1157.681 1156.674 1155.593 1154.446 1153.236 1152.021 1150.859 1149.755 1148.645 1147.52 1146.419 1145.344 1144.301 1143.29 1142.308 1141.37 1140.455 1139.55 1138.637 1137.758 1136.897 1136.048 1135.207 1134.363 1133.5 1132.611 1131.656 1130.646 1129.618 1128.586 1127.565 1126.56 1125.534 1124.481 1123.349 1122.15 1120.912 1119.671 1118.451 1117.263 1116.121 1115.031 1113.988 1113.007 1112.027 1111.045 1110.032 1109 1108 1106.993 1106.013 1105.09 1104.223 1103.385 1102.589 1101.734 1100.896 1100.008 1099.09 1098.172 1097.247 1096.362 1095.496 1094.656 1093.813 1092.978 1092.18 1091.378 1090.59 1089.803 1088.995 1088.057 1086.922 1085.737 1084.528 1083.312 1082.08 1080.803 1079.613 1078.77 1077.899 1077.04 1076.046 1075.088 1074.123 1073.171 1072.21 1071.234 1070.224 1069.268 1068.437 1067.631 1066.855 1066.059 1065.201 1064.359 1063.49 1062.632 1061.8 1060.932 1059.905 1058.647 1057.334 1056.025 1054.771 1053.554 1052.393 1051.243 1050.083 1049.226 1048.533 1047.744 1046.979 1046.187 1045.442 1044.746 1044.079 1043.558 1042.91 1042.13 1041.472 1040.718 1040.074 1039.43 1038.663 1037.979 1037.392 1036.696 1036.115 1035.467 1035.122 1034.508 1033.957 1033.356 1032.513 1031.752 1030.881 1029.975 1029.025 1028.208 1027.573 1027.02 1026.404 1025.811 1025.156 1024.418 1023.638 1022.785 1021.895 1020.992 1020.064 1019.095 1018.125 1017.123 1016.091 1015.037 1013.978 1012.835 1011.823 1010.674 1009.472 1008.355 1007.277 1006.205 1005.185 1004.346 1003.292 1002.276 1001.255 1000.173 998.9835 997.7282 996.4437 995.1056 993.7819 992.517 991.08 989.9573 988.9286 987.9332 986.9301 985.9433 985.0139 984.097 983.1838 982.3115 981.4542 980.6448 979.7767 978.7305 977.6395 976.5565 975.4948 974.4672 973.4279 972.4438 971.4586 970.5507 969.6851 968.8972 968.1551 967.4263 966.6917 965.9756 965.2382 964.5138 963.7777 963.0352 962.3425 961.5736 960.8225 960.1165 959.4639 958.755 957.9403 957.0127 955.9977 954.9067 953.729 952.5413 951.4137 950.5071 949.7647 949.0491 948.3268 947.5508 946.6772 945.6762 944.5891 -9999 -9999 -9999 -9999 -9999 -9999 -9999 -9999 -9999 -9999 -9999 -9999 -9999 -9999
1331.472 1330.279 1329.061 1327.757 1326.313 1324.725 1322.861 1320.856 1318.702 1316.499 1314.717 1313.286 1312.355 1311.362 1310.61 1309.644 1308.63 1307.572 1306.641 1305.698 1304.811 1303.559 1302.227 1300.713 1299.175 1297.55 1296.075 1294.828 1293.814 1293.05 1292.387 1291.774 1291.171 1290.637 1290.286 1289.55 1288.794 1288.172 1287.4 1286.452 1285.574 1284.615 1283.522 1282.38 1281.155 1279.735 1278.432 1277.057 1275.925 1275.243 1274.794 1274.427 1274.249 1273.868 1273.42 1272.812 1271.941 1270.966 1269.838 1268.676 1267.631 1266.856 1266.009 1265.336 1264.502 1263.757 1263.059 1262.343 1261.653 1261.067 1260.204 1258.918 1257.607 1256.28 1255.045 1253.916 1252.839 1251.74 1250.56 1249.386 1248.241 1247.303 1246.423 1245.567 1244.777 1243.973 1243.154 1242.142 1241.138 1240.161 1239.252 1238.293 1237.026 1235.73 1234.449 1233.132 1231.848 1230.59 1229.317 1228.059 1226.814 1225.672 1224.507 1223.345 1222.213 1221.038 1219.55 1218.005 1216.534 1215.014 1213.508 1212.013 1210.395 1208.618 1206.929 1205.397 1204.031 1202.736 1201.471 1200.131 1198.998 1198.102 1197.344 1196.616 1195.948 1195.297 1194.641 1194.03 1193.442 1192.819 1192.215 1191.578 1190.891 1190.189 1189.452 1188.706 1187.954 1187.147 1186.274 1185.39 1184.497 1183.549 1182.545 1181.528 1180.468 1179.39 1178.303 1177.166 1176.025 1174.853 1173.722 1172.641 1171.613 1170.624 1169.657 1168.662 1167.638 1166.621 1165.621 1164.631 1163.646 1162.672 1161.731 1160.795 1159.867 1158.906 1157.848 1156.7 1155.49 1154.292 1153.1 1151.943 1150.841 1149.776 1148.644 1147.534 1146.463 1145.412 1144.392 1143.401 1142.392 1141.446 1140.571 1139.66 1138.774 1137.926 1137.088 1136.27 1135.422 1134.561 1133.65 1132.724 1131.748 1130.729 1129.708 1128.742 1127.81 1126.85 1125.835 1124.746 1123.585 1122.384 1121.181 1120.008 1118.839 1117.696 1116.615 1115.563 1114.543 1113.547 1112.549 1111.527 1110.502 1109.475 1108.468 1107.472 1106.55 1105.689 1104.865 1104.046 1103.22 1102.37 1101.495 1100.568 1099.61 1098.652 1097.727 1096.895 1096.068 1095.25 1094.452 1093.682 1092.901 1092.194 1091.473 1090.751 1089.898 1088.69 1087.492 1086.272 1085.024 1083.772 1082.51 1081.354 1080.374 1079.433 1078.463 1077.5 1076.491 1075.486 1074.503 1073.555 1072.573 1071.569 1070.511 1069.686 1068.916 1068.144 1067.314 1066.477 1065.62 1064.733 1063.862 1062.989 1062.094 1061.094 1059.909 1058.69 1057.498 1056.283 1055.086 1053.888 1052.704 1051.523 1050.537 1049.651 1048.797 1047.942 1047.127 1046.354 1045.603 1044.929 1044.289 1043.646 1043.013 1042.255 1041.6 1040.914 1040.255 1039.495 1038.794 1038.127 1037.56 1036.958 1036.383 1035.772 1035.307 1035.055 1034.296 1033.652 1032.859 1031.984 1031.001 1029.957 1029.037 1028.505 1028.078 1027.596 1026.981 1026.313 1025.598 1024.791 1023.935 1023.027 1022.09 1021.05 1020.048 1019.034 1017.983 1016.925 1015.824 1014.652 1013.501 1012.317 1011.194 1009.968 1008.81 1007.682 1006.611 1005.686 1004.674 1003.702 1002.65 1001.601 1000.518 999.324 998.0669 996.7469 995.4304 994.1094 992.7576 991.4919 990.233 989.169 988.1443 987.0992 986.1073 985.1325 984.188 983.2546 982.3195 981.4795 980.6763 979.8443 978.7674 977.6796 976.6232 975.6038 974.5717 973.6038 972.6584 971.7343 970.8095 969.9837 969.2217 968.5157 967.7784 967.0691 966.2875 965.6534 965.0878 964.3846 963.6758 962.9664 962.3895 961.6862 961.0085 960.3519 959.7067 958.9102 957.9932 957.0062 955.9432 954.7928 -9999 -9999 -9999 -9999 -9999 -9999 -9999 -9999 -9999 -9999 -9999 -9999 -9999 -9999 -9999 -9999 -9999 -9999 -9999 -9999 -9999 -9999 -9999 -9999
1336.331 1335.256 1334.447 1333.226 1331.947 1330.424 1328.613 1326.458 1323.997 1322.01 1320.104 1318.68 1317.395 1316.434 1315.461 1314.518 1313.479 1312.488 1311.457 1310.382 1308.83 1307.62 1306.152 1304.417 1302.516 1300.522 1298.622 1297.207 1295.917 1294.885 1294.124 1293.57 1293.177 1292.855 1292.473 1291.916 1291.28 1290.702 1289.939 1288.995 1288.16 1287.274 1286.08 1284.735 1283.335 1281.895 1280.442 1278.897 1277.7 1277.045 -9999 -9999 -9999 -9999 -9999 1275.426 1274.683 1273.742 1272.583 1271.223 1270.049 1269.326 1268.413 1267.549 1266.473 1265.667 1265.168 1264.789 1264.39 1263.838 1263.148 1262.056 1260.776 1259.448 1258.038 1256.746 1255.579 1254.384 1253.099 1251.683 1250.314 1249.402 1248.474 1247.467 1246.509 1245.66 1244.796 1243.855 1242.935 1242.07 1241.271 1240.438 1239.138 1237.875 1236.597 1235.397 1234.118 1232.807 1231.445 1230.061 1228.689 1227.399 1226.292 1225.265 1224.114 1222.919 1221.611 1220.233 1218.849 1217.402 1215.805 1214.199 1212.551 1210.843 1209.191 1207.623 1206.133 1204.706 1203.25 1201.736 1200.221 1199.345 1198.522 1197.689 1196.931 1196.238 1195.533 1194.861 1194.23 1193.557 1192.936 1192.317 1191.69 1191.006 1190.388 1189.698 1188.991 1188.201 1187.385 1186.543 1185.675 1184.769 1183.812 1182.819 1181.816 1180.792 1179.762 1178.727 1177.6 1176.421 1175.268 1174.175 1173.126 1172.121 1171.149 1170.151 1169.115 1168.074 1167.071 1166.058 1165.057 1164.069 1163.082 1162.118 1161.132 1160.141 1159.059 1157.814 1156.555 1155.342 1154.151 1153.001 1151.896 1150.819 1149.759 1148.651 1147.563 1146.519 1145.492 1144.461 1143.488 1142.543 1141.621 1140.728 1139.829 1138.991 1138.172 1137.332 1136.487 1135.609 1134.74 1133.828 1132.892 1131.899 1130.903 1129.985 1129.121 1128.22 1127.236 1126.169 1125.016 1123.858 1122.672 1121.517 1120.367 1119.244 1118.155 1117.126 1116.084 1115.059 1114.058 1113.041 1112.011 1111.003 1109.959 1108.954 1108.015 1107.185 1106.371 1105.569 1104.749 1103.905 1103.01 1102.088 1101.122 1100.115 1099.145 1098.321 1097.53 1096.723 1095.932 1095.169 1094.438 1093.738 1093.035 1092.295 1091.443 1090.379 1089.216 1088.044 1086.813 1085.576 1084.369 1083.226 1082.16 1081.104 1080.07 1079.036 1077.996 1076.939 1075.934 1074.998 1074.078 1073.119 1072.148 1071.27 1070.391 1069.575 1068.735 1067.838 1066.949 1065.993 1065.098 1064.218 1063.305 1062.292 1061.267 1060.146 1058.992 1057.886 1056.726 1055.549 1054.359 1053.19 1052.091 1051.078 1050.056 1049.06 1048.126 1047.272 1046.514 1045.894 1045.255 1044.514 1044.045 1043.273 1042.646 1041.985 1041.281 1040.509 1039.828 1039.316 1038.698 1038.067 1037.38 1036.892 1036.526 1036.13 1035.651 1034.998 1034.258 1033.385 1032.366 1031.206 1030.002 1029.775 1029.427 1028.964 1028.337 1027.677 1026.918 1026.096 1025.206 1024.263 1023.247 1022.223 1021.128 1020.049 1018.95 1017.827 1016.653 1015.502 1014.299 1013.057 1011.796 1010.573 1009.338 1008.162 1007.178 1006.142 1005.115 1004.081 1003.089 1002.013 1000.889 999.7032 998.4406 997.1187 995.7981 994.4827 993.1423 991.8547 990.5497 989.4601 988.4193 987.3472 986.3117 985.2882 984.2828 983.2934 982.3625 981.4523 980.5855 979.6811 978.6992 977.6793 976.6848 975.6723 974.7269 973.8089 972.9066 971.9908 971.1563 970.3245 969.5546 968.8988 968.2175 967.4863 966.8461 966.1723 965.502 965.0262 964.3464 963.7415 -9999 -9999 -9999 -9999 -9999 -9999 -9999 -9999 -9999 -9999 -9999 -9999 -9999 -9999 -9999 -9999 -9999 -9999 -9999 -9999 -9999 -9999 -9999 -9999 -9999 -9999 -9999 -9999 -9999 -9999 -9999 -9999 -9999 -9999
1340.698 1340.057 1339.69 1338.583 1337.495 1336.313 1334.41 1331.895 1329.435 1327.335 1325.534 1323.992 1322.583 1321.621 1320.892 1319.945 1318.749 1317.66 1316.656 1315.145 1313.682 1312.187 1310.399 1308.522 1306.384 1304.168 1301.929 1300.007 1298.237 1296.731 1295.922 1295.547 1295.44 1295.191 1294.791 1294.279 1293.63 1292.926 1292.142 1291.336 1290.634 1290.065 1288.618 1287.148 1285.736 1284.355 1282.79 -9999 -9999 -9999 -9999 -9999 -9999 -9999 -9999 1278.573 1277.818 1276.972 1275.888 1274.638 1273.452 1272.37 1271.31 1269.971 1268.669 1267.699 1267.567 1267.554 1267.361 1266.927 1266.177 1265.346 1264.15 1262.765 1261.29 1259.802 1258.659 1257.348 1255.977 1254.531 1253.114 1251.888 1250.702 1249.449 1248.458 1247.427 1246.456 1245.537 1244.605 1243.785 1242.957 1242.054 1240.98 1239.84 1238.702 1237.562 1236.318 1234.976 1233.567 1232.126 1230.586 1229.117 1228.117 1227.086 1226.002 1224.79 1223.507 1222.23 1220.99 1219.611 1217.949 1216.299 1214.645 1212.996 1211.381 1209.818 1208.289 1206.753 1205.2 1203.731 1202.265 1201.053 1199.953 1198.901 1198.024 1197.235 1196.465 1195.721 1195.025 1194.355 1193.711 1193.089 1192.443 1191.818 1191.217 1190.636 1190.007 1189.235 1188.452 1187.673 1186.847 1185.972 1185.048 1184.09 1183.075 1182.104 1181.167 1180.239 1179.114 1177.902 1176.748 1175.641 1174.586 1173.568 1172.567 1171.568 1170.55 1169.526 1168.501 1167.488 1166.474 1165.458 1164.436 1163.422 1162.4 1161.344 1160.218 1158.901 1157.596 1156.365 1155.166 1154.028 1152.915 1151.844 1150.765 1149.717 1148.672 1147.604 1146.559 1145.551 1144.581 1143.644 1142.733 1141.826 1140.957 1140.108 1139.266 1138.431 1137.568 1136.719 1135.857 1134.976 1134.049 1133.134 1132.202 1131.326 1130.483 1129.623 1128.691 1127.606 1126.461 1125.284 1124.13 1122.994 1121.865 1120.763 1119.693 1118.646 1117.618 1116.598 1115.593 1114.584 1113.578 1112.539 1111.521 1110.477 1109.493 1108.716 1107.945 1107.16 1106.358 1105.498 1104.621 1103.689 1102.731 1101.722 1100.737 1099.896 1099.066 1098.231 1097.441 1096.668 1095.973 1095.301 1094.602 1093.868 1093.027 1092.054 1090.964 1089.812 1088.632 1087.448 1086.263 1085.11 1084.005 1082.91 1081.814 1080.719 1079.581 1078.441 1077.461 1076.576 1075.709 1074.833 1073.892 1072.868 1071.997 1071.079 1070.194 1069.292 1068.268 1067.351 1066.419 1065.466 1064.557 1063.659 1062.675 1061.722 1060.593 1059.525 1058.475 1057.33 1056.146 1054.914 1053.741 1052.588 1051.505 1050.414 1049.324 1048.366 1047.598 1046.899 1046.302 1045.648 1045.06 1044.465 1043.887 1043.306 1042.663 1042.018 1041.407 1040.835 1040.184 1039.408 1038.63 1038.226 1037.979 1037.678 1037.263 1036.712 -9999 -9999 -9999 -9999 -9999 -9999 -9999 1030.538 1029.924 1029.201 1028.401 1027.529 1026.595 1025.574 1024.534 1023.462 1022.349 1021.197 1020.004 1018.823 1017.644 1016.426 1015.167 1013.874 1012.548 1011.202 1009.914 1008.758 1007.695 1006.673 1005.64 1004.585 1003.575 1002.48 1001.32 1000.124 998.8488 997.5453 996.2123 994.8899 993.5853 992.1071 990.9391 989.821 988.7593 987.6839 986.5607 985.4713 984.3904 983.3634 982.3737 981.4142 980.4789 979.5353 978.6168 977.6856 976.7051 975.7972 974.9145 974.047 973.1427 972.3389 971.5427 970.7442 -9999 -9999 -9999 -9999 -9999 -9999 -9999 -9999 -9999 -9999 -9999 -9999 -9999 -9999 -9999 -9999 -9999 -9999 -9999 -9999 -9999 -9999 -9999 -9999 -9999 -9999 -9999 -9999 -9999 -9999 -9999 -9999 -9999 -9999 -9999 -9999 -9999 -9999 -9999 -9999 -9999 -9999 -9999 -9999
1344.707 1344.301 1343.978 1343.304 1342.453 1341.655 1339.765 1337.094 1334.705 1332.475 1330.651 1329.101 1328.162 1327.2 1326.296 1325.527 1324.489 1323.162 1321.813 1320.437 1318.817 1317.208 1315.094 1312.97 1310.912 1308.454 1305.911 1303.399 1300.965 1298.771 1298.001 1298.11 1298.069 1297.851 1297.372 1296.74 1296.092 1295.197 1294.323 1293.542 1292.904 1292.198 1291.063 1289.709 -9999 -9999 -9999 -9999 -9999 -9999 -9999 -9999 -9999 -9999 -9999 1282.041 1281.467 1280.701 1279.666 1278.537 1277.313 1276.072 1274.696 1273.219 1271.358 1270.094 1270.623 1270.811 1270.762 1270.33 1269.643 1268.715 1267.509 1266.401 1264.916 1263.521 1262.064 1260.686 1259.145 1257.624 1256.151 1254.671 1253.306 1251.951 1250.666 1249.401 1248.221 1247.243 1246.289 1245.426 1244.54 1243.655 1242.657 1241.659 1240.705 1239.729 1238.5 1237.079 1235.747 1234.293 1232.767 1231.319 1230.2 1229.065 1227.872 1226.646 1225.348 1224.095 1222.822 1221.426 1219.868 1218.286 1216.685 1215.084 1213.507 1211.968 1210.433 1208.884 1207.368 1205.862 1204.41 1203.027 1201.66 1200.278 1199.273 1198.43 1197.54 1196.691 1195.901 1195.177 1194.5 1193.864 1193.234 1192.626 1192.052 1191.449 1190.855 1190.175 1189.47 1188.758 1187.999 1187.16 1186.256 1185.281 1184.311 1183.363 1182.434 1181.482 1180.401 1179.266 1178.143 1177.051 1175.992 1174.963 1173.958 1172.964 1171.964 1170.954 1169.936 1168.925 1167.893 1166.845 1165.797 1164.737 1163.649 1162.497 1161.253 1159.924 1158.594 1157.349 1156.182 1155.045 1153.952 1152.884 1151.827 1150.78 1149.753 1148.692 1147.634 1146.634 1145.673 1144.752 1143.836 1142.954 1142.096 1141.24 1140.403 1139.551 1138.7 1137.843 1137.006 1136.14 1135.267 1134.377 1133.507 1132.658 1131.828 1131.002 1130.142 1129.017 1127.849 1126.694 1125.551 1124.451 1123.346 1122.263 1121.207 1120.171 1119.154 1118.165 1117.168 1116.167 1115.167 1114.156 1113.143 1112.151 1111.2 1110.391 1109.622 1108.839 1108.014 1107.184 1106.301 1105.388 1104.433 1103.464 1102.498 1101.603 1100.72 1099.837 1098.977 1098.181 1097.526 1096.854 1096.211 1095.52 1094.698 1093.758 1092.734 1091.605 1090.473 1089.334 1088.187 1087.018 1085.889 1084.777 1083.669 1082.555 1081.324 1080.096 1079.135 1078.375 1077.562 1076.537 1075.597 1074.604 1073.646 1072.776 1071.795 1070.847 1069.825 1068.764 1067.752 1066.805 1065.947 1065.12 1064.262 1063.255 1062.31 1061.268 1060.283 1059.213 1058.007 1056.707 1055.442 1054.23 1053.038 1051.855 1050.672 1049.533 1048.821 1048.145 1047.531 1046.911 1046.332 1045.8 1045.33 1044.825 1044.333 1043.807 1043.263 1042.693 1042 1041.179 1040.17 1039.883 1039.801 1039.551 -9999 -9999 -9999 -9999 -9999 -9999 -9999 -9999 -9999 -9999 -9999 1030.903 1030.037 1029.09 1028.067 1027.015 1025.93 1024.803 1023.636 1022.431 1021.173 1019.938 1018.714 1017.456 1016.157 1014.819 1013.441 1012.025 1010.589 1009.346 1008.347 1007.329 1006.28 1005.262 1004.15 1002.998 1001.807 1000.565 999.2876 997.9777 -9999 -9999 -9999 -9999 -9999 -9999 -9999 -9999 -9999 -9999 -9999 -9999 -9999 -9999 -9999 -9999 -9999 977.687 976.83 975.9567 975.1367 974.2609 973.4923 -9999 -9999 -9999 -9999 -9999 -9999 -9999 -9999 -9999 -9999 -9999 -9999 -9999 -9999 -9999 -9999 -9999 -9999 -9999 -9999 -9999 -9999 -9999 -9999 -9999 -9999 -9999 -9999 -9999 -9999 -9999 -9999 -9999 -9999 -9999 -9999 -9999 -9999 -9999 -9999 -9999 -9999 -9999 -9999 -9999 -9999 -9999
1348.437 1348.286 1348.063 1347.629 1346.855 1345.797 1344.116 1342.015 1339.679 1337.462 1335.58 1334.59 1333.799 1333.012 1332.19 1331.195 1330.147 1329.018 1327.512 1325.952 1324.273 1322.444 1320.301 1317.955 1315.724 1313.114 1310.383 1307.632 1304.775 1301.896 1301.286 1301.39 1301.304 1300.874 1300.345 1299.66 1298.729 1297.662 1296.589 1295.788 1295.237 1294.693 -9999 -9999 -9999 -9999 -9999 -9999 -9999 -9999 -9999 -9999 -9999 -9999 -9999 1285.835 1285.347 1284.666 1283.809 1282.787 1281.578 1280.259 1278.806 1277.224 1275.697 1274.707 1274.58 1274.717 1274.62 1274.177 1273.474 1272.496 1271.301 1269.939 1268.754 1267.17 1265.64 1264.082 1262.579 1260.942 1259.292 1257.668 1256.094 1254.616 1253.096 1251.606 1250.231 1249.142 1248.003 1246.997 1246.161 1245.193 1244.349 1243.399 1242.504 1241.567 1240.398 1239.127 1237.883 1236.54 1235.152 1233.776 1232.484 1231.205 1229.843 1228.47 1227.145 1225.868 1224.519 1223.128 1221.663 1220.16 1218.629 1217.09 1215.553 1214.047 1212.499 1210.98 1209.521 1208.087 1206.63 1205.134 1203.642 1202.197 1200.948 1199.851 1198.767 1197.74 1196.849 1196.07 1195.348 1194.68 1194.038 1193.428 1192.834 1192.261 1191.691 1191.061 1190.469 1189.816 1189.126 1188.328 1187.412 1186.444 1185.504 1184.571 1183.597 1182.627 1181.604 1180.529 1179.446 1178.394 1177.345 1176.332 1175.335 1174.343 1173.364 1172.387 1171.395 1170.365 1169.311 1168.25 1167.175 1166.075 1164.902 1163.693 1162.377 1160.965 1159.552 1158.359 1157.22 1156.103 1155.006 1153.946 1152.889 1151.851 1150.822 1149.773 1148.71 1147.693 1146.764 1145.842 1144.964 1144.103 1143.237 1142.393 1141.528 1140.688 1139.839 1138.994 1138.17 1137.327 1136.483 1135.645 1134.803 1133.97 1133.136 1132.291 1131.379 1130.316 1129.208 1128.088 1126.967 1125.876 1124.808 1123.727 1122.675 1121.668 1120.703 1119.732 1118.775 1117.786 1116.794 1115.818 1114.844 1113.876 1112.987 1112.151 1111.362 1110.56 1109.757 1108.922 1108.067 1107.165 1106.208 1105.244 1104.295 1103.361 1102.442 1101.522 1100.586 1099.689 1099.113 1098.52 1097.889 1097.202 1096.446 1095.532 1094.507 1093.42 1092.29 1091.196 1090.06 1088.927 1087.817 1086.724 1085.637 1084.517 1083.35 1082.19 1081.175 1080.31 1079.394 1078.434 1077.463 1076.479 1075.462 1074.444 1073.446 1072.416 1071.375 1070.276 1069.228 1068.242 1067.446 1066.715 1065.92 1065.07 1064.009 1063.069 1062.051 1061.031 1059.827 1058.505 1057.215 1055.946 1054.749 1053.519 1052.293 1051.106 1050.318 1049.65 1049.008 1048.398 1047.821 1047.326 1046.924 1046.595 1046.224 1045.806 1045.353 1044.848 1044.259 1043.546 1042.785 -9999 -9999 -9999 -9999 -9999 -9999 -9999 -9999 -9999 -9999 -9999 -9999 -9999 -9999 -9999 -9999 1030.746 1029.667 1028.567 1027.422 1026.239 1025.021 1023.728 1022.465 1021.208 -9999 -9999 -9999 -9999 -9999 -9999 -9999 1010.293 1009.229 1008.179 1007.116 1006.002 -9999 -9999 -9999 -9999 -9999 -9999 -9999 -9999 -9999 -9999 -9999 -9999 -9999 -9999 -9999 -9999 -9999 -9999 -9999 -9999 -9999 -9999 -9999 -9999 -9999 -9999 -9999 -9999 -9999 -9999 -9999 -9999 -9999 -9999 -9999 -9999 -9999 -9999 -9999 -9999 -9999 -9999 -9999 -9999 -9999 -9999 -9999 -9999 -9999 -9999 -9999 -9999 -9999 -9999 -9999 -9999 -9999 -9999 -9999 -9999 -9999 -9999 -9999 -9999 -9999 -9999 -9999 -9999 -9999 -9999 -9999 -9999 -9999 -9999 -9999 -9999
1351.528 1351.911 1352.151 1351.641 1350.925 1349.873 1348.528 1346.717 1344.84 1342.729 1340.871 1340.165 1339.526 1338.595 1337.774 1336.854 1336.114 1334.768 1333.322 1331.823 1330.058 1328.052 1325.879 1323.495 1320.727 1318.092 1315.474 -9999 -9999 -9999 -9999 -9999 1304.87 1304.393 1303.841 1302.965 1301.869 1300.541 1299.088 1298.217 -9999 -9999 -9999 -9999 -9999 -9999 -9999 -9999 -9999 -9999 -9999 -9999 -9999 -9999 -9999 1289.927 1289.596 1289.054 1288.318 1287.373 1286.216 -9999 -9999 -9999 -9999 -9999 -9999 -9999 -9999 -9999 -9999 -9999 -9999 -9999 -9999 1271.049 1269.348 1267.689 1265.985 1264.379 1262.6 1260.774 1259.011 1257.334 1255.688 1254.125 1252.671 1251.328 1249.891 1248.694 1247.834 1246.93 1245.954 1245.019 1244.073 1243.144 1242.104 1241.002 1239.959 1238.84 1237.516 1236.175 1234.837 1233.423 1231.923 1230.327 1228.983 1227.659 1226.262 1224.818 1223.36 1221.923 1220.453 1219.008 1217.551 1216.057 1214.506 1213.014 1211.581 1210.245 1208.904 1207.288 1205.733 1204.258 1202.862 1201.494 1200.144 1198.855 1197.876 1197.045 1196.261 1195.541 1194.868 1194.215 1193.65 1193.059 1192.488 1191.925 1191.343 1190.796 1190.208 1189.433 1188.481 1187.554 1186.629 1185.674 1184.728 1183.763 1182.767 1181.744 1180.707 1179.678 1178.66 1177.66 1176.689 1175.719 1174.757 1173.789 1172.816 1171.803 1170.75 1169.667 1168.579 1167.434 1166.234 1164.972 1163.618 1162.183 1160.723 1159.5 1158.345 1157.199 1156.096 1155.013 1153.96 1152.905 1151.871 1150.817 1149.771 1148.76 1147.835 1146.959 1146.1 1145.238 1144.415 1143.575 1142.734 1141.877 1141.034 1140.18 1139.363 1138.535 1137.728 1136.91 1136.091 1135.262 1134.423 1133.563 1132.601 1131.608 1130.549 1129.463 1128.371 1127.298 1126.246 1125.193 1124.142 1123.153 1122.213 1121.294 1120.379 1119.41 1118.448 1117.494 1116.546 1115.62 1114.744 1113.928 1113.116 1112.344 1111.535 1110.721 1109.886 1108.993 1108.031 1107.068 1106.113 1105.158 1104.227 1103.306 1102.385 1101.539 1100.875 1100.249 1099.611 1098.939 1098.202 1097.348 1096.304 1095.193 1094.075 1092.967 1091.871 1090.794 1089.754 1088.712 1087.651 1086.624 1085.554 1084.508 1083.452 1082.469 1081.46 1080.468 1079.484 1078.432 1077.373 1076.29 1075.247 1074.187 1073.115 1072.048 1070.91 1069.75 1069.13 1068.487 1067.756 1066.938 1065.826 1064.872 1063.819 1062.734 1061.556 1060.302 1059.048 1057.798 1056.577 1055.387 1054.077 1053.022 1052.126 1051.39 1050.741 1050.129 1049.511 1049.004 1048.801 1048.588 1048.327 1048.01 1047.64 -9999 -9999 -9999 -9999 -9999 -9999 -9999 -9999 -9999 -9999 -9999 -9999 -9999 -9999 -9999 -9999 -9999 -9999 -9999 -9999 -9999 -9999 1030.204 1028.998 1027.76 1026.394 1025.133 -9999 -9999 -9999 -9999 -9999 -9999 -9999 -9999 -9999 -9999 -9999 -9999 -9999 -9999 -9999 -9999 -9999 -9999 -9999 -9999 -9999 -9999 -9999 -9999 -9999 -9999 -9999 -9999 -9999 -9999 -9999 -9999 -9999 -9999 -9999 -9999 -9999 -9999 -9999 -9999 -9999 -9999 -9999 -9999 -9999 -9999 -9999 -9999 -9999 -9999 -9999 -9999 -9999 -9999 -9999 -9999 -9999 -9999 -9999 -9999 -9999 -9999 -9999 -9999 -9999 -9999 -9999 -9999 -9999 -9999 -9999 -9999 -9999 -9999 -9999 -9999 -9999 -9999 -9999 -9999 -9999 -9999 -9999 -9999 -9999 -9999 -9999 -9999 -9999 -9999
1355.178 1355.734 1356.028 1355.68 1355.138 1354.182 1353.072 -9999 -9999 -9999 1347.292 1346.399 1345.716 1344.824 1344.05 1343.07 1341.813 1341.031 1339.527 1337.974 1335.913 1333.583 1331.253 1328.794 -9999 -9999 -9999 -9999 -9999 -9999 -9999 -9999 -9999 -9999 -9999 -9999 -9999 -9999 -9999 -9999 -9999 -9999 -9999 -9999 -9999 -9999 -9999 -9999 -9999 -9999 -9999 -9999 -9999 -9999 -9999 1294.462 1294.122 1293.692 -9999 -9999 -9999 -9999 -9999 -9999 -9999 -9999 -9999 -9999 -9999 -9999 -9999 -9999 -9999 -9999 -9999 -9999 -9999 1271.342 1269.557 1267.787 1265.981 1263.994 1262.02 1260.037 1258.314 1256.73 1255.246 1253.759 1252.183 1250.825 1249.825 1248.756 1247.676 1246.621 1245.675 1244.705 1243.698 1242.76 1241.816 1240.889 1239.698 1238.48 1237.181 1235.696 1234.11 1232.502 1230.98 1229.523 1228.016 1226.497 1224.984 1223.568 1222.177 1220.803 1219.464 1217.988 1216.411 1214.894 1213.48 1212.156 1210.836 1209.29 1207.782 1206.327 1204.89 1203.38 1201.754 1200.02 1199.097 1198.175 1197.271 1196.459 1195.713 1195.069 1194.47 1193.886 1193.337 1192.764 1192.201 1191.635 1191.05 1190.311 1189.469 1188.587 1187.668 1186.755 1185.826 1184.878 1183.908 1182.913 1181.918 1180.916 1179.935 1178.96 1178.015 1177.088 1176.156 1175.211 1174.245 1173.25 1172.222 1171.133 1170.023 1168.849 1167.616 1166.342 1164.972 1163.547 1162.144 1160.802 1159.543 1158.326 1157.177 1156.108 1155.037 1154 1152.963 1151.917 1150.861 1149.859 1148.976 1148.104 1147.253 1146.427 1145.609 1144.779 1143.942 1143.102 1142.246 1141.403 1140.572 1139.768 1138.964 1138.165 1137.357 1136.526 1135.683 1134.792 1133.832 1132.882 1131.895 1130.838 1129.766 1128.707 1127.667 1126.636 1125.635 1124.66 1123.722 1122.825 1121.932 1121.023 1120.111 1119.18 1118.262 1117.377 1116.528 1115.694 1114.913 1114.136 1113.354 1112.548 1111.712 1110.823 1109.871 1108.904 1107.938 1106.987 1106.054 1105.147 1104.256 1103.448 1102.72 1102.034 1101.363 1100.689 1100.004 1099.205 1098.068 1096.926 1095.799 1094.716 1093.661 1092.633 1091.634 1090.687 1089.728 1088.786 1087.843 1086.804 1085.726 1084.675 1083.656 1082.625 1081.57 1080.483 1079.335 1078.217 1077.133 1076.124 1075.087 1074.058 1072.962 1071.942 1071.178 1070.514 1069.773 1068.696 1067.764 1066.723 1065.681 1064.524 1063.332 1062.134 1060.952 1059.773 1058.583 1057.24 1056.115 1055.052 1054.086 1053.355 1052.714 1052.147 1051.585 1051.136 -9999 -9999 -9999 -9999 -9999 -9999 -9999 -9999 -9999 -9999 -9999 -9999 -9999 -9999 -9999 -9999 -9999 -9999 -9999 -9999 -9999 -9999 -9999 -9999 -9999 -9999 -9999 -9999 -9999 -9999 -9999 -9999 -9999 -9999 -9999 -9999 -9999 -9999 -9999 -9999 -9999 -9999 -9999 -9999 -9999 -9999 -9999 -9999 -9999 -9999 -9999 -9999 -9999 -9999 -9999 -9999 -9999 -9999 -9999 -9999 -9999 -9999 -9999 -9999 -9999 -9999 -9999 -9999 -9999 -9999 -9999 -9999 -9999 -9999 -9999 -9999 -9999 -9999 -9999 -9999 -9999 -9999 -9999 -9999 -9999 -9999 -9999 -9999 -9999 -9999 -9999 -9999 -9999 -9999 -9999 -9999 -9999 -9999 -9999 -9999 -9999 -9999 -9999 -9999 -9999 -9999 -9999 -9999 -9999 -9999 -9999 -9999 -9999 -9999 -9999 -9999 -9999 -9999 -9999 -9999 -9999 -9999
-9999 -9999 -9999 -9999 -9999 -9999 -9999 -9999 -9999 -9999 -9999 -9999 -9999 -9999 -9999 -9999 1348.271 1346.993 1346.047 1344.292 -9999 -9999 -9999 -9999 -9999 -9999 -9999 -9999 -9999 -9999 -9999 -9999 -9999 -9999 -9999 -9999 -9999 -9999 -9999 -9999 -9999 -9999 -9999 -9999 -9999 -9999 -9999 -9999 -9999 -9999 -9999 -9999 -9999 -9999 -9999 -9999 -9999 -9999 -9999 -9999 -9999 -9999 -9999 -9999 -9999 -9999 -9999 -9999 -9999 -9999 -9999 -9999 -9999 -9999 -9999 -9999 -9999 -9999 -9999 1271.169 1269.268 1267.291 1265.12 1262.785 1260.969 1259.43 1257.928 1256.454 1254.862 1253.403 1252.087 1250.757 1249.45 1248.373 1247.285 1246.268 1245.291 1244.357 1243.52 1242.606 1241.613 1240.591 1239.493 1237.916 1236.305 1234.671 1233.051 1231.392 1229.782 1228.129 1226.577 1225.156 1223.766 1222.453 1221.172 1219.724 1218.124 1216.6 1215.193 1213.84 1212.486 1211.109 1209.735 1208.384 1207.006 1205.476 1203.771 1202.085 1200.722 1199.502 1198.373 1197.402 1196.631 1195.986 1195.363 1194.768 1194.172 1193.59 1193.015 1192.42 1191.795 1191.116 1190.337 1189.501 1188.669 1187.798 1186.892 1185.959 1185.016 1184.043 1183.081 1182.132 1181.173 1180.226 1179.317 1178.427 1177.533 1176.622 1175.688 1174.713 1173.693 1172.629 1171.498 1170.309 1169.069 1167.768 1166.402 1164.996 1163.571 1162.172 1160.784 1159.488 1158.304 1157.225 1156.176 1155.139 1154.106 1153.079 1152.036 1151.068 1150.183 1149.3 1148.457 1147.65 1146.846 1146.021 1145.189 1144.342 1143.464 1142.621 1141.801 1140.996 1140.215 1139.433 1138.644 1137.836 1136.965 1136.062 1135.143 1134.186 1133.253 1132.237 1131.187 1130.145 1129.133 1128.117 1127.129 1126.155 1125.216 1124.345 1123.501 1122.647 1121.758 1120.888 1120.011 1119.143 1118.295 1117.491 1116.716 1115.968 1115.195 1114.381 1113.541 1112.648 1111.698 1110.731 1109.786 1108.835 1107.91 1106.99 1106.138 1105.328 1104.561 1103.821 1103.085 1102.356 1101.629 1100.779 1099.692 1098.558 1097.457 1096.402 1095.388 1094.433 1093.489 1092.654 1091.8 1090.946 1090.12 1089.125 1088.001 1086.923 1085.88 1084.852 1083.768 1082.66 1081.487 1080.227 1079.16 1078.24 1077.239 1076.247 1075.215 1074.286 1073.466 1072.709 1071.688 1070.791 1069.77 1068.736 1067.575 1066.418 1065.229 1064.056 1062.935 1061.849 1060.712 1059.421 1058.281 1057.123 1056.173 1055.449 1054.919 1054.472 -9999 -9999 -9999 -9999 -9999 -9999 -9999 -9999 -9999 -9999 -9999 -9999 -9999 -9999 -9999 -9999 -9999 -9999 -9999 -9999 -9999 -9999 -9999 -9999 -9999 -9999 -9999 -9999 -9999 -9999 -9999 -9999 -9999 -9999 -9999 -9999 -9999 -9999 -9999 -9999 -9999 -9999 -9999 -9999 -9999 -9999 -9999 -9999 -9999 -9999 -9999 -9999 -9999 -9999 -9999 -9999 -9999 -9999 -9999 -9999 -9999 -9999 -9999 -9999 -9999 -9999 -9999 -9999 -9999 -9999 -9999 -9999 -9999 -9999 -9999 -9999 -9999 -9999 -9999 -9999 -9999 -9999 -9999 -9999 -9999 -9999 -9999 -9999 -9999 -9999 -9999 -9999 -9999 -9999 -9999 -9999 -9999 -9999 -9999 -9999 -9999 -9999 -9999 -9999 -9999 -9999 -9999 -9999 -9999 -9999 -9999 -9999 -9999 -9999 -9999 -9999 -9999 -9999 -9999 -9999 -9999 -9999 -9999 -9999
-9999 -9999 -9999 -9999 -9999 -9999 -9999 -9999 -9999 -9999 -9999 -9999 -9999 -9999 -9999 -9999 -9999 -9999 -9999 -9999 -9999 -9999 -9999 -9999 -9999 -9999 -9999 -9999 -9999 -9999 -9999 -9999 -9999 -9999 -9999 -9999 -9999 -9999 -9999 -9999 -9999 -9999 -9999 -9999 -9999 -9999 -9999 -9999 -9999 -9999 -9999 -9999 -9999 -9999 -9999 -9999 -9999 -9999 -9999 -9999 -9999 -9999 -9999 -9999 -9999 -9999 -9999 -9999 -9999 -9999 -9999 -9999 -9999 -9999 -9999 -9999 -9999 -9999 -9999 1274.42 1272.763 1270.445 1268.129 1265.783 1263.709 1261.919 1260.523 1259.271 1257.416 1255.804 1254.336 1252.976 1251.594 1250.282 1249.026 1247.806 1246.825 1245.911 1245.078 1244.223 1243.313 1242.34 1241.239 1239.889 1238.425 1236.806 1235.072 1233.314 1231.493 1229.716 1228.106 1226.691 1225.327 1223.972 1222.598 1221.15 1219.653 1218.165 1216.734 1215.382 1214.095 1212.834 1211.56 1210.364 1209.187 1207.751 1205.935 1204.179 1202.558 1201.036 1199.572 1198.448 1197.701 1197 1196.339 1195.664 1195.016 1194.404 1193.809 1193.201 1192.561 1191.889 1191.175 1190.417 1189.649 1188.812 1187.92 1187.015 1186.089 1185.163 1184.234 1183.314 1182.389 1181.483 1180.602 1179.73 1178.878 1178.013 1177.119 1176.172 1175.17 1174.112 1172.982 1171.77 1170.52 1169.227 1167.885 1166.474 1165.02 1163.567 1162.129 1160.715 1159.481 1158.421 1157.365 1156.323 1155.299 1154.252 1153.27 1152.322 1151.42 1150.536 1149.687 1148.897 1148.12 1147.301 1146.447 1145.571 1144.7 1143.845 1143.016 1142.23 1141.457 1140.697 1139.937 1139.114 1138.241 1137.371 1136.472 1135.544 1134.626 1133.637 1132.633 1131.623 1130.624 1129.63 1128.621 1127.627 1126.714 1125.881 1125.077 1124.266 1123.444 1122.607 1121.775 1120.924 1120.078 1119.298 1118.545 1117.794 1117.04 1116.234 1115.398 1114.482 1113.525 1112.558 1111.611 1110.669 1109.743 1108.845 1107.983 1107.173 1106.369 1105.561 1104.746 1103.947 1103.13 1102.227 1101.209 1100.141 1099.079 1098.055 1097.13 1096.254 1095.401 1094.612 1093.82 1093.007 1092.177 1091.231 1090.186 1089.14 1088.08 1087.065 1086.039 1084.979 1083.822 1082.633 1081.539 1080.561 1079.53 1078.593 1077.519 1076.706 1075.861 1074.747 1073.857 1072.953 1071.953 1070.802 1069.668 1068.464 1067.224 1066.063 1065.027 1064.044 1062.991 1061.79 1060.656 1059.425 1058.342 1057.728 1057.382 -9999 -9999 -9999 -9999 -9999 -9999 -9999 -9999 -9999 -9999 -9999 -9999 -9999 -9999 -9999 -9999 -9999 -9999 -9999 -9999 -9999 -9999 -9999 -9999 -9999 -9999 -9999 -9999 -9999 -9999 -9999 -9999 -9999 -9999 -9999 -9999 -9999 -9999 -9999 -9999 -9999 -9999 -9999 -9999 -9999 -9999 -9999 -9999 -9999 -9999 -9999 -9999 -9999 -9999 -9999 -9999 -9999 -9999 -9999 -9999 -9999 -9999 -9999 -9999 -9999 -9999 -9999 -9999 -9999 -9999 -9999 -9999 -9999 -9999 -9999 -9999 -9999 -9999 -9999 -9999 -9999 -9999 -9999 -9999 -9999 -9999 -9999 -9999 -9999 -9999 -9999 -9999 -9999 -9999 -9999 -9999 -9999 -9999 -9999 -9999 -9999 -9999 -9999 -9999 -9999 -9999 -9999 -9999 -9999 -9999 -9999 -9999 -9999 -9999 -9999 -9999 -9999 -9999 -9999 -9999 -9999 -9999 -9999 -9999 -9999
-9999 -9999 -9999 -9999 -9999 -9999 -9999 -9999 -9999 -9999 -9999 -9999 -9999 -9999 -9999 -9999 -9999 -9999 -9999 -9999 -9999 -9999 -9999 -9999 -9999 -9999 -9999 -9999 -9999 -9999 -9999 -9999 -9999 -9999 -9999 -9999 -9999 -9999 -9999 -9999 -9999 -9999 -9999 -9999 -9999 -9999 -9999 -9999 -9999 -9999 -9999 -9999 -9999 -9999 -9999 -9999 -9999 -9999 -9999 -9999 -9999 -9999 -9999 -9999 -9999 -9999 -9999 -9999 -9999 -9999 -9999 -9999 -9999 -9999 -9999 -9999 -9999 -9999 -9999 -9999 1275.837 1273.985 1271.336 1268.744 1266.177 1264.145 1262.654 1261.29 1259.707 1258.124 1256.641 1255.332 1253.868 1252.399 1250.912 1249.47 1248.407 1247.526 1246.684 1245.839 1244.875 1243.895 1242.832 1241.627 1240.374 1238.872 1237.063 1235.21 1233.329 1231.405 1229.732 1228.301 1226.868 1225.43 1224.008 1222.531 1221.047 1219.585 1218.154 1216.846 1215.639 1214.418 1213.246 1212.124 1211.111 1209.78 1207.939 1206.185 1204.49 1202.79 1200.997 1199.714 1198.955 1198.181 1197.368 1196.595 1195.9 1195.253 1194.618 1193.991 1193.358 1192.679 1191.987 1191.282 1190.563 1189.783 1188.906 1188.026 1187.147 1186.256 1185.364 1184.462 1183.576 1182.698 1181.843 1181.007 1180.173 1179.359 1178.513 1177.62 1176.665 1175.595 1174.445 1173.214 1171.958 1170.688 1169.38 1167.957 1166.463 1164.983 1163.53 1162.133 1160.858 1159.693 1158.606 1157.539 1156.494 1155.498 1154.533 1153.611 1152.705 1151.822 1151.002 1150.202 1149.413 1148.614 1147.744 1146.819 1145.917 1145.042 1144.226 1143.445 1142.691 1141.952 1141.187 1140.374 1139.546 1138.693 1137.828 1136.929 1136.035 1135.046 1134.086 1133.119 1132.133 1131.146 1130.123 1129.125 1128.203 1127.434 1126.686 1125.936 1125.153 1124.36 1123.533 1122.722 1121.897 1121.119 1120.372 1119.619 1118.872 1118.102 1117.255 1116.321 1115.349 1114.366 1113.4 1112.455 1111.535 1110.65 1109.802 1108.981 1108.149 1107.244 1106.368 1105.48 1104.616 1103.682 1102.721 1101.719 1100.687 1099.669 1098.864 1098.089 1097.308 1096.557 1095.793 1094.99 1094.161 1093.258 1092.294 1091.31 1090.325 1089.332 1088.379 1087.392 1086.308 1085.136 1084.042 1082.983 1081.955 1080.981 1080.039 1078.948 1078.055 1077.138 1076.204 1075.178 1074.167 1073.088 1071.924 1070.666 1069.331 1068.118 1067.253 1066.404 1065.524 1064.399 1063.306 1062.039 1060.856 -9999 -9999 -9999 -9999 -9999 -9999 -9999 -9999 -9999 -9999 -9999 -9999 -9999 -9999 -9999 -9999 -9999 -9999 -9999 -9999 -9999 -9999 -9999 -9999 -9999 -9999 -9999 -9999 -9999 -9999 -9999 -9999 -9999 -9999 -9999 -9999 -9999 -9999 -9999 -9999 -9999 -9999 -9999 -9999 -9999 -9999 -9999 -9999 -9999 -9999 -9999 -9999 -9999 -9999 -9999 -9999 -9999 -9999 -9999 -9999 -9999 -9999 -9999 -9999 -9999 -9999 -9999 -9999 -9999 -9999 -9999 -9999 -9999 -9999 -9999 -9999 -9999 -9999 -9999 -9999 -9999 -9999 -9999 -9999 -9999 -9999 -9999 -9999 -9999 -9999 -9999 -9999 -9999 -9999 -9999 -9999 -9999 -9999 -9999 -9999 -9999 -9999 -9999 -9999 -9999 -9999 -9999 -9999 -9999 -9999 -9999 -9999 -9999 -9999 -9999 -9999 -9999 -9999 -9999 -9999 -9999 -9999 -9999 -9999 -9999 -9999 -9999
-9999 -9999 -9999 -9999 -9999 -9999 -9999 -9999 -9999 -9999 -9999 -9999 -9999 -9999 -9999 -9999 -9999 -9999 -9999 -9999 -9999 -9999 -9999 -9999 -9999 -9999 -9999 -9999 -9999 -9999 -9999 -9999 -9999 -9999 -9999 -9999 -9999 -9999 -9999 -9999 -9999 -9999 -9999 -9999 -9999 -9999 -9999 -9999 -9999 -9999 -9999 -9999 -9999 -9999 -9999 -9999 -9999 -9999 -9999 -9999 -9999 -9999 -9999 -9999 -9999 -9999 -9999 -9999 -9999 -9999 -9999 -9999 -9999 -9999 -9999 -9999 -9999 -9999 -9999 -9999 1279.716 1277.143 1274.623 1271.473 1268.388 1266.157 1264.528 1263.216 1261.778 1260.4 1259.007 1257.684 1256.233 1254.691 1253.129 1251.591 1250.397 1249.323 1248.3 1247.369 1246.431 1245.456 1244.349 1243.224 1242.016 1240.585 1238.921 1237.137 1235.253 1233.357 1231.582 1229.995 1228.415 1226.892 1225.42 1223.936 1222.445 1220.971 1219.588 1218.299 1217.072 1215.882 1214.728 1213.607 1212.506 1211.196 1209.676 1208.1 1206.51 1204.857 1203.142 1201.673 1200.533 1199.481 1198.475 1197.565 1196.788 1196.078 1195.456 1194.816 1194.152 1193.492 1192.823 1192.117 1191.394 1190.634 1189.833 1189.013 1188.172 1187.321 1186.442 1185.58 1184.714 1183.867 1183.033 1182.223 1181.431 1180.656 1179.854 1179.047 1178.153 1177.074 1175.866 1174.594 1173.338 1172.063 1170.79 1169.353 1167.848 1166.375 1164.926 1163.556 1162.262 1161.041 1159.884 1158.789 1157.756 1156.768 1155.832 1154.906 1154.005 1153.137 1152.303 1151.527 1150.738 1149.95 1149.051 1148.067 1147.111 1146.226 1145.408 1144.652 1143.926 1143.18 1142.423 1141.653 1140.857 1140.03 1139.186 1138.33 1137.432 1136.507 1135.555 1134.635 1133.673 1132.687 1131.704 1130.678 1129.687 1129.047 1128.383 1127.679 1126.922 1126.129 1125.317 1124.498 1123.709 1122.932 1122.169 1121.432 1120.704 1119.979 1119.121 1118.123 1117.133 1116.137 1115.147 1114.193 1113.281 1112.394 1111.543 1110.734 1109.878 1108.893 1107.916 1106.992 1106.046 1105.164 1104.254 1103.312 1102.373 1101.452 1100.662 1099.916 1099.187 1098.489 1097.744 1096.944 1096.122 1095.273 1094.366 1093.428 1092.49 1091.566 1090.661 1089.815 1088.803 1087.611 1086.492 1085.432 1084.439 1083.441 1082.51 1081.396 1080.535 1079.593 1078.645 1077.462 1076.505 1075.521 1074.367 1073.109 1071.717 -9999 -9999 -9999 -9999 -9999 -9999 -9999 -9999 -9999 -9999 -9999 -9999 -9999 -9999 -9999 -9999 -9999 -9999 -9999 -9999 -9999 -9999 -9999 -9999 -9999 -9999 -9999 -9999 -9999 -9999 -9999 -9999 -9999 -9999 -9999 -9999 -9999 -9999 -9999 -9999 -9999 -9999 -9999 -9999 -9999 -9999 -9999 -9999 -9999 -9999 -9999 -9999 -9999 -9999 -9999 -9999 -9999 -9999 -9999 -9999 -9999 -9999 -9999 -9999 -9999 -9999 -9999 -9999 -9999 -9999 -9999 -9999 -9999 -9999 -9999 -9999 -9999 -9999 -9999 -9999 -9999 -9999 -9999 -9999 -9999 -9999 -9999 -9999 -9999 -9999 -9999 -9999 -9999 -9999 -9999 -9999 -9999 -9999 -9999 -9999 -9999 -9999 -9999 -9999 -9999 -9999 -9999 -9999 -9999 -9999 -9999 -9999 -9999 -9999 -9999 -9999 -9999 -9999 -9999 -9999 -9999 -9999 -9999 -9999 -9999 -9999 -9999 -9999 -9999 -9999 -9999 -9999 -9999 -9999 -9999
-9999 -9999 -9999 -9999 -9999 -9999 -9999 -9999 -9999 -9999 -9999 -9999 -9999 -9999 -9999 -9999 -9999 -9999 -9999 -9999 -9999 -9999 -9999 -9999 -9999 -9999 -9999 -9999 -9999 -9999 -9999 -9999 -9999 -9999 -9999 -9999 -9999 -9999 -9999 -9999 -9999 -9999 -9999 -9999 -9999 -9999 -9999 -9999 -9999 -9999 -9999 -9999 -9999 -9999 -9999 -9999 -9999 -9999 -9999 -9999 -9999 -9999 -9999 -9999 -9999 -9999 -9999 -9999 -9999 -9999 -9999 -9999 -9999 -9999 -9999 -9999 -9999 -9999 -9999 -9999 -9999 1281.18 1278.169 1274.847 1270.792 1268.162 1266.833 1265.417 1263.993 1262.579 1261.389 1260.228 1258.656 1257.128 1255.563 1254.105 1252.721 1251.432 1250.138 1249.168 1248.133 1247.05 1245.888 1244.711 1243.483 1242.141 1240.623 1239.031 1237.196 1235.273 1233.425 1231.642 1229.979 1228.362 1226.864 1225.376 1223.893 1222.422 1221.007 1219.709 1218.439 1217.229 1216.082 1214.917 1213.77 1212.539 1211.229 1209.909 1208.555 1207.096 1205.397 1203.741 1202.282 1200.958 1199.693 1198.592 1197.731 1197.047 1196.378 1195.694 1195.007 1194.343 1193.635 1192.902 1192.204 1191.46 1190.714 1189.936 1189.158 1188.342 1187.496 1186.646 1185.81 1184.983 1184.169 1183.373 1182.587 1181.826 1181.106 1180.375 1179.62 1178.474 1177.189 1175.904 1174.618 1173.327 1171.988 1170.591 1169.148 1167.698 1166.299 1164.947 1163.65 1162.41 1161.215 1160.097 1159.037 1158.055 1157.115 1156.212 1155.321 1154.465 1153.621 1152.807 1152.021 1151.196 1150.273 1149.276 1148.289 1147.379 1146.567 1145.857 1145.123 1144.419 1143.704 1142.95 1142.172 1141.37 1140.549 1139.733 1138.882 1137.979 1137.049 1136.138 1135.206 1134.259 1133.357 1132.406 1131.524 1130.822 1130.163 1129.478 1128.714 1127.912 1127.092 1126.284 1125.488 1124.706 1123.939 1123.195 1122.465 1121.693 1120.829 1119.854 1118.854 1117.836 1116.844 1115.881 1114.949 1114.06 1113.197 1112.337 1111.431 1110.451 1109.443 1108.438 1107.507 1106.633 1105.767 1104.911 1104.074 1103.253 1102.491 1101.77 1101.078 1100.384 1099.685 1098.881 1098.068 1097.246 1096.404 1095.501 1094.58 1093.687 1092.822 1091.976 1091.028 1089.95 1088.897 1087.865 1086.87 1085.92 1084.87 1083.902 1082.881 1082.081 1081.037 1079.973 1078.98 1077.991 1076.984 1075.79 1074.534 -9999 -9999 -9999 -9999 -9999 -9999 -9999 -9999 -9999 -9999 -9999 -9999 -9999 -9999 -9999 -9999 -9999 -9999 -9999 -9999 -9999 -9999 -9999 -9999 -9999 -9999 -9999 -9999 -9999 -9999 -9999 -9999 -9999 -9999 -9999 -9999 -9999 -9999 -9999 -9999 -9999 -9999 -9999 -9999 -9999 -9999 -9999 -9999 -9999 -9999 -9999 -9999 -9999 -9999 -9999 -9999 -9999 -9999 -9999 -9999 -9999 -9999 -9999 -9999 -9999 -9999 -9999 -9999 -9999 -9999 -9999 -9999 -9999 -9999 -9999 -9999 -9999 -9999 -9999 -9999 -9999 -9999 -9999 -9999 -9999 -9999 -9999 -9999 -9999 -9999 -9999 -9999 -9999 -9999 -9999 -9999 -9999 -9999 -9999 -9999 -9999 -9999 -9999 -9999 -9999 -9999 -9999 -9999 -9999 -9999 -9999 -9999 -9999 -9999 -9999 -9999 -9999 -9999 -9999 -9999 -9999 -9999 -9999 -9999 -9999 -9999 -9999 -9999 -9999 -9999 -9999 -9999 -9999 -9999 -9999
-9999 -9999 -9999 -9999 -9999 -9999 -9999 -9999 -9999 -9999 -9999 -9999 -9999 -9999 -9999 -9999 -9999 -9999 -9999 -9999 -9999 -9999 -9999 -9999 -9999 -9999 -9999 -9999 -9999 -9999 -9999 -9999 -9999 -9999 -9999 -9999 -9999 -9999 -9999 -9999 -9999 -9999 -9999 -9999 -9999 -9999 -9999 -9999 -9999 -9999 -9999 -9999 -9999 -9999 -9999 -9999 -9999 -9999 -9999 -9999 -9999 -9999 -9999 -9999 -9999 -9999 -9999 -9999 -9999 -9999 -9999 -9999 -9999 -9999 -9999 -9999 -9999 -9999 -9999 -9999 -9999 -9999 1282.632 1279.191 -9999 1271.923 1269.967 1268.18 1266.421 1264.94 1263.761 1262.492 1261.059 1259.588 1258.115 1256.636 1255.17 1253.759 1252.442 1251.216 1249.997 1248.736 1247.477 1246.247 1244.952 1243.604 1242.232 1240.787 1239.004 1237.075 1235.193 1233.35 1231.56 1229.888 1228.361 1226.844 1225.368 1223.89 1222.417 1221.052 1219.735 1218.475 1217.312 1216.165 1215.012 1213.84 1212.674 1211.505 1210.476 1209.368 1207.491 1205.683 1204.039 1202.503 1201.009 1199.611 1198.803 1198.109 1197.385 1196.646 1195.925 1195.185 1194.422 1193.694 1192.992 1192.248 1191.563 1190.828 1190.107 1189.339 1188.501 1187.665 1186.856 1186.046 1185.247 1184.44 1183.671 1182.918 1182.201 1181.477 1180.692 1179.595 1178.35 1177.089 1175.801 1174.477 1173.14 1171.764 1170.352 1168.988 1167.623 1166.297 1165.009 1163.747 1162.565 1161.427 1160.352 1159.37 1158.424 1157.51 1156.626 1155.771 1154.925 1154.112 1153.272 1152.419 1151.473 1150.464 1149.45 1148.502 1147.734 1147.056 1146.395 1145.712 1145.01 1144.274 1143.507 1142.73 1141.929 1141.136 1140.324 1139.441 1138.535 1137.644 1136.76 1135.896 1135.065 1134.175 1133.405 1132.676 1131.979 1131.263 1130.496 1129.672 1128.864 1128.046 1127.234 1126.436 1125.669 1124.901 1124.137 1123.336 1122.465 1121.518 1120.511 1119.499 1118.51 1117.526 1116.576 1115.676 1114.797 1113.909 1112.974 1111.984 1110.953 1109.907 1108.933 1108.126 1107.34 1106.566 1105.794 1105.023 1104.3 1103.602 1102.917 1102.213 1101.504 1100.746 1099.971 1099.19 1098.394 1097.518 1096.583 1095.667 1094.791 1093.958 1093.079 1092.15 1091.229 1090.247 1089.291 1088.328 1087.352 1086.379 1085.429 1084.458 1083.601 1082.529 1081.551 1080.579 1079.641 1078.649 1077.487 -9999 -9999 -9999 -9999 -9999 -9999 -9999 -9999 -9999 -9999 -9999 -9999 -9999 -9999 -9999 -9999 -9999 -9999 -9999 -9999 -9999 -9999 -9999 -9999 -9999 -9999 -9999 -9999 -9999 -9999 -9999 -9999 -9999 -9999 -9999 -9999 -9999 -9999 -9999 -9999 -9999 -9999 -9999 -9999 -9999 -9999 -9999 -9999 -9999 -9999 -9999 -9999 -9999 -9999 -9999 -9999 -9999 -9999 -9999 -9999 -9999 -9999 -9999 -9999 -9999 -9999 -9999 -9999 -9999 -9999 -9999 -9999 -9999 -9999 -9999 -9999 -9999 -9999 -9999 -9999 -9999 -9999 -9999 -9999 -9999 -9999 -9999 -9999 -9999 -9999 -9999 -9999 -9999 -9999 -9999 -9999 -9999 -9999 -9999 -9999 -9999 -9999 -9999 -9999 -9999 -9999 -9999 -9999 -9999 -9999 -9999 -9999 -9999 -9999 -9999 -9999 -9999 -9999 -9999 -9999 -9999 -9999 -9999 -9999 -9999 -9999 -9999 -9999 -9999 -9999 -9999 -9999 -9999 -9999 -9999
-9999 -9999 -9999 -9999 -9999 -9999 -9999 -9999 -9999 -9999 -9999 -9999 -9999 -9999 -9999 -9999 -9999 -9999 -9999 -9999 -9999 -9999 -9999 -9999 -9999 -9999 -9999 -9999 -9999 -9999 -9999 -9999 -9999 -9999 -9999 -9999 -9999 -9999 -9999 -9999 -9999 -9999 -9999 -9999 -9999 -9999 -9999 -9999 -9999 -9999 -9999 -9999 -9999 -9999 -9999 -9999 -9999 -9999 -9999 -9999 -9999 -9999 -9999 -9999 -9999 -9999 -9999 -9999 -9999 -9999 -9999 -9999 -9999 -9999 -9999 -9999 -9999 -9999 -9999 -9999 -9999 -9999 -9999 -9999 -9999 -9999 1273.883 1271.435 1269.111 1267.473 1266.193 1264.887 1263.551 1262.128 1260.695 1259.26 1257.698 1256.215 1254.796 1253.39 1251.97 1250.55 1249.143 1247.805 1246.443 1245.089 1243.69 1242.204 1240.547 1238.809 1236.885 1235.034 1233.206 1231.475 1229.899 1228.312 1226.794 1225.278 1223.797 1222.389 1220.999 1219.719 1218.508 1217.33 1216.161 1215.028 1213.906 1212.812 1211.834 1210.703 1209.115 1207.395 1205.755 1204.171 1202.606 1201.155 1200.212 1199.352 1198.511 1197.688 1196.849 1196.017 1195.233 1194.492 1193.751 1193.042 1192.346 1191.655 1190.94 1190.214 1189.43 1188.618 1187.843 1187.016 1186.231 1185.443 1184.669 1183.903 1183.161 1182.364 1181.503 1180.486 1179.354 1178.149 1176.883 1175.57 1174.228 1172.848 1171.495 1170.183 1168.891 1167.6 1166.3 1165.067 1163.885 1162.756 1161.693 1160.707 1159.757 1158.836 1157.955 1157.084 1156.261 1155.398 1154.569 1153.674 1152.736 1151.724 1150.65 1149.613 1148.936 1148.347 1147.735 1147.081 1146.375 1145.641 1144.876 1144.091 1143.307 1142.514 1141.692 1140.847 1139.973 1139.088 1138.269 1137.488 1136.708 1135.967 1135.254 1134.528 1133.787 1133.028 1132.237 1131.425 1130.607 1129.78 1128.944 1128.143 1127.357 1126.565 1125.777 1124.959 1124.087 1123.107 1122.125 1121.15 1120.131 1119.119 1118.169 1117.27 1116.393 1115.483 1114.541 1113.549 1112.504 1111.46 1110.476 1109.703 1108.928 1108.183 1107.486 1106.773 1106.083 1105.381 1104.676 1104.001 1103.296 1102.542 1101.8 1101.06 1100.332 1099.429 1098.461 1097.526 1096.687 1095.897 1095.103 1094.289 1093.482 1092.651 1091.756 1090.814 1089.851 1088.912 1087.991 1087.026 1085.996 1085.096 1084.123 1083.156 1082.247 1081.354 1080.301 1079.331 1078.501 -9999 -9999 -9999 -9999 -9999 -9999 -9999 -9999 -9999 -9999 -9999 -9999 -9999 -9999 -9999 -9999 -9999 -9999 -9999 -9999 -9999 -9999 -9999 -9999 -9999 -9999 -9999 -9999 -9999 -9999 -9999 -9999 -9999 -9999 -9999 -9999 -9999 -9999 -9999 -9999 -9999 -9999 -9999 -9999 -9999 -9999 -9999 -9999 -9999 -9999 -9999 -9999 -9999 -9999 -9999 -9999 -9999 -9999 -9999 -9999 -9999 -9999 -9999 -9999 -9999 -9999 -9999 -9999 -9999 -9999 -9999 -9999 -9999 -9999 -9999 -9999 -9999 -9999 -9999 -9999 -9999 -9999 -9999 -9999 -9999 -9999 -9999 -9999 -9999 -9999 -9999 -9999 -9999 -9999 -9999 -9999 -9999 -9999 -9999 -9999 -9999 -9999 -9999 -9999 -9999 -9999 -9999 -9999 -9999 -9999 -9999 -9999 -9999 -9999 -9999 -9999 -9999 -9999 -9999 -9999 -9999 -9999 -9999 -9999 -9999 -9999 -9999 -9999 -9999 -9999 -9999 -9999 -9999
-9999 -9999 -9999 -9999 -9999 -9999 -9999 -9999 -9999 -9999 -9999 -9999 -9999 -9999 -9999 -9999 -9999 -9999 -9999 -9999 -9999 -9999 -9999 -9999 -9999 -9999 -9999 -9999 -9999 -9999 -9999 -9999 -9999 -9999 -9999 1346.837 1345.793 1344.4 1343.47 1343.335 1342.702 1341.72 1341.241 1340.516 1339.842 1339.247 -9999 -9999 -9999 -9999 -9999 -9999 -9999 -9999 -9999 -9999 -9999 -9999 -9999 -9999 -9999 -9999 -9999 -9999 -9999 -9999 -9999 -9999 -9999 -9999 -9999 -9999 -9999 -9999 -9999 -9999 -9999 -9999 -9999 -9999 -9999 -9999 -9999 -9999 -9999 -9999 1278.229 1275.274 1272.488 1270.497 1268.979 1267.58 1266.164 1264.693 1263.192 1261.73 1260.134 1258.558 1257.033 1255.59 1254.097 1252.553 1250.982 1249.388 1247.958 1246.606 1245.184 1243.684 1242.081 1240.349 1238.547 1236.674 1234.801 1233.022 1231.342 1229.768 1228.221 1226.666 1225.163 1223.687 1222.244 1220.872 1219.678 1218.425 1217.221 1216.057 1214.919 1213.851 1212.78 1211.664 1210.27 1208.896 1207.395 1205.915 1204.45 1203.063 1201.864 1200.796 1199.753 1198.754 1197.811 1196.913 1196.054 1195.273 1194.53 1193.832 1193.117 1192.407 1191.692 1190.955 1190.236 1189.5 1188.723 1187.967 1187.179 1186.393 1185.602 1184.805 1184.005 1183.162 1182.251 1181.3 1180.246 1179.125 1177.901 1176.585 1175.213 1173.877 1172.569 1171.317 1170.106 1168.823 1167.548 1166.339 1165.168 1164.073 1163.018 1162.023 1161.091 1160.17 1159.271 1158.412 1157.56 1156.726 1155.875 1155.008 1154.072 1153.092 1152.055 1151.052 1150.367 1149.775 1149.156 1148.499 1147.777 1147.043 1146.266 1145.471 1144.655 1143.849 1143.042 1142.215 1141.36 1140.54 1139.783 1139.044 1138.361 1137.715 1137.078 1136.329 1135.55 1134.76 1133.958 1133.14 1132.322 1131.475 1130.634 1129.797 1129.004 1128.212 1127.408 1126.571 1125.67 1124.742 1123.766 1122.758 1121.751 1120.711 1119.745 1118.879 1117.966 1117.071 1116.13 1115.143 1114.12 1113.107 1112.16 1111.31 1110.561 1109.834 1109.152 1108.473 1107.807 1107.103 1106.385 1105.723 1105.031 1104.297 1103.545 1102.81 1102.038 1101.16 1100.225 1099.303 1098.505 1097.776 1097.093 1096.395 1095.7 1095.008 1094.264 1093.408 1092.491 1091.536 1090.53 1089.589 1088.61 1087.591 1086.635 1085.654 1084.74 1083.877 1083.006 1082.084 1081.357 1080.739 1080.181 1079.784 1079.494 -9999 -9999 -9999 -9999 -9999 -9999 -9999 -9999 -9999 -9999 -9999 -9999 -9999 -9999 -9999 -9999 -9999 -9999 -9999 -9999 -9999 -9999 -9999 -9999 -9999 -9999 -9999 -9999 -9999 -9999 -9999 -9999 -9999 -9999 -9999 -9999 -9999 -9999 -9999 -9999 -9999 -9999 -9999 -9999 -9999 -9999 -9999 -9999 -9999 -9999 -9999 -9999 -9999 -9999 -9999 -9999 -9999 -9999 -9999 -9999 -9999 -9999 -9999 -9999 -9999 -9999 -9999 -9999 -9999 -9999 -9999 -9999 -9999 -9999 -9999 -9999 -9999 -9999 -9999 -9999 -9999 -9999 -9999 -9999 -9999 -9999 -9999 -9999 -9999 -9999 -9999 -9999 -9999 -9999 -9999 -9999 -9999 -9999 -9999 -9999 -9999 -9999 -9999 -9999 -9999 -9999 -9999 -9999 -9999 -9999 -9999 -9999 -9999 -9999 -9999 -9999 -9999 -9999 -9999 -9999 -9999 -9999 -9999 -9999 -9999 -9999 -9999 -9999 -9999
-9999 -9999 -9999 -9999 -9999 -9999 -9999 -9999 -9999 -9999 -9999 -9999 -9999 -9999 -9999 -9999 -9999 -9999 -9999 -9999 -9999 -9999 -9999 -9999 -9999 -9999 -9999 -9999 -9999 -9999 -9999 1359.064 1357.126 1355.217 1353.649 1352.27 1351.045 1349.884 1348.863 1348.058 1348.177 1347.491 1346.581 1345.973 1345.081 1344.607 1343.979 1343.734 1343.16 -9999 -9999 -9999 -9999 -9999 -9999 -9999 -9999 -9999 -9999 -9999 -9999 -9999 -9999 -9999 -9999 -9999 -9999 -9999 -9999 -9999 -9999 -9999 -9999 -9999 -9999 -9999 -9999 -9999 -9999 -9999 -9999 1297.958 1295.889 -9999 -9999 -9999 1282.946 1279.592 1276.5 1274.056 1272.156 1270.535 1268.938 1267.347 1265.72 1264.057 1262.432 1260.83 1259.268 1257.781 1256.297 1254.703 1252.993 1251.239 1249.696 1248.275 1246.765 1245.23 1243.625 1241.924 1240.164 1238.253 1236.347 1234.527 1232.771 1231.136 1229.592 1227.996 1226.441 1224.893 1223.409 1221.998 1220.66 1219.425 1218.173 1216.942 1215.803 1214.72 1213.663 1212.569 1211.376 1210.086 1208.955 1207.66 1206.312 1204.913 1203.531 1202.259 1201.033 1199.872 1198.769 1197.747 1196.85 1196.054 1195.322 1194.572 1193.845 1193.138 1192.427 1191.705 1191.002 1190.284 1189.555 1188.862 1188.08 1187.284 1186.465 1185.635 1184.761 1183.838 1182.95 1182.01 1181.035 1180.027 1178.848 1177.478 1176.124 1174.807 1173.544 1172.331 1171.137 1169.923 1168.717 1167.541 1166.422 1165.352 1164.324 1163.342 1162.394 1161.492 1160.6 1159.751 1158.918 1158.092 1157.263 1156.417 1155.523 1154.583 1153.632 1152.742 1151.987 1151.327 1150.663 1149.979 1149.26 1148.468 1147.657 1146.817 1145.99 1145.168 1144.361 1143.518 1142.727 1141.947 1141.188 1140.509 1139.898 1139.343 1138.814 1138.086 1137.226 1136.428 1135.62 1134.806 1133.965 1133.136 1132.283 1131.444 1130.628 1129.81 1128.997 1128.16 1127.28 1126.357 1125.395 1124.375 1123.355 1122.344 1121.373 1120.461 1119.563 1118.66 1117.735 1116.766 1115.724 1114.719 1113.767 1112.93 1112.151 1111.442 1110.774 1110.13 1109.532 1108.824 1108.079 1107.351 1106.701 1105.979 1105.257 1104.478 1103.678 1102.826 1101.944 1101.057 -9999 -9999 1099.006 1098.432 1097.869 1097.319 1096.736 1095.992 1095.064 1094.121 1093.111 1092.1 1091.149 1090.133 1089.157 1088.115 1087.192 1086.372 1085.608 1084.809 1084.147 1083.58 1083.112 1082.741 1082.425 -9999 -9999 -9999 -9999 -9999 -9999 -9999 -9999 -9999 -9999 -9999 -9999 -9999 -9999 -9999 -9999 -9999 -9999 -9999 -9999 -9999 -9999 -9999 -9999 -9999 -9999 -9999 -9999 -9999 -9999 -9999 -9999 -9999 -9999 -9999 -9999 -9999 -9999 -9999 -9999 -9999 -9999 -9999 -9999 -9999 -9999 -9999 -9999 -9999 -9999 -9999 -9999 -9999 -9999 -9999 -9999 -9999 -9999 -9999 -9999 -9999 -9999 -9999 -9999 -9999 -9999 -9999 -9999 -9999 -9999 -9999 -9999 -9999 -9999 -9999 -9999 -9999 -9999 -9999 -9999 -9999 -9999 -9999 -9999 -9999 -9999 -9999 -9999 -9999 -9999 -9999 -9999 -9999 -9999 -9999 -9999 -9999 -9999 -9999 -9999 -9999 -9999 -9999 -9999 -9999 -9999 -9999 -9999 -9999 -9999 -9999 -9999 -9999 -9999 -9999 -9999 -9999 -9999 -9999 -9999 -9999 -9999 -9999 -9999 -9999 -9999 -9999 -9999 -9999
-9999 -9999 -9999 -9999 -9999 -9999 -9999 -9999 -9999 -9999 -9999 -9999 -9999 -9999 -9999 -9999 -9999 -9999 -9999 -9999 -9999 -9999 -9999 -9999 -9999 -9999 1375.263 1372.513 1369.779 1367.774 1365.713 1364.078 1362.266 1360.464 1358.973 1357.819 1356.53 1355.36 1354.361 1352.633 1353.94 1352.766 1351.568 1350.942 1350.38 1349.986 1349.445 1348.923 1348.306 1348.485 1348.314 -9999 -9999 -9999 -9999 -9999 -9999 -9999 -9999 -9999 -9999 -9999 -9999 -9999 -9999 -9999 -9999 -9999 -9999 -9999 -9999 -9999 -9999 -9999 -9999 -9999 -9999 -9999 -9999 -9999 1302.755 1301.029 1298.961 1296.639 1293.818 1290.845 1287.533 1284.04 1280.578 1277.45 1275.402 1273.734 1271.975 1270.197 1268.313 1266.489 1264.74 1263.081 1261.5 1260.001 1258.553 1256.954 1255.192 1253.428 1251.723 1250.075 1248.429 1246.84 1245.217 1243.504 1241.659 1239.744 1237.8 1235.929 1234.15 1232.478 1230.862 1229.261 1227.644 1226.063 1224.511 1223.008 1221.635 1220.31 1218.981 1217.721 1216.563 1215.488 1214.428 1213.389 1212.365 1211.229 1210.37 1209.329 1208.148 1206.693 1205.154 1203.672 1202.277 1200.943 1199.686 1198.558 1197.639 1196.853 1196.076 1195.324 1194.596 1193.876 1193.154 1192.425 1191.771 1190.988 1190.309 1189.653 1188.898 1188.109 1187.237 1186.37 1185.448 1184.497 1183.568 1182.633 1181.691 1180.72 1179.563 1178.215 1176.893 1175.626 1174.411 1173.239 1172.094 1170.94 1169.797 1168.719 1167.635 1166.612 1165.615 1164.651 1163.723 1162.817 1161.951 1161.087 1160.284 1159.479 1158.678 1157.88 1157.034 1156.138 1155.25 1154.414 1153.65 1152.93 1152.232 1151.503 1150.749 1149.919 1149.06 1148.195 1147.333 1146.479 1145.657 1144.83 1144.022 1143.233 1142.517 1141.893 1141.306 1140.821 1140.391 1139.62 1138.768 1137.977 1137.22 1136.415 1135.579 1134.733 1133.874 1133.037 1132.204 1131.372 1130.557 1129.742 1128.906 1127.987 1126.973 1125.968 1124.93 1123.937 1122.982 1122.047 1121.124 1120.228 1119.348 1118.361 1117.294 1116.244 1115.334 1114.469 1113.712 1112.981 1112.336 1111.692 1111.095 1110.418 1109.689 1108.972 1108.281 1107.557 1106.856 1106.1 1105.282 1104.474 -9999 -9999 -9999 -9999 -9999 -9999 1099.894 1099.495 1099.163 1098.481 1097.478 1096.514 1095.602 1094.626 1093.627 1092.656 1091.656 1090.596 1089.575 1088.825 1088.087 1087.405 1086.769 1086.274 1085.828 1085.449 -9999 -9999 -9999 -9999 -9999 -9999 -9999 -9999 -9999 -9999 -9999 -9999 -9999 -9999 -9999 -9999 -9999 -9999 -9999 -9999 -9999 -9999 -9999 -9999 -9999 -9999 -9999 -9999 -9999 -9999 -9999 -9999 -9999 -9999 -9999 -9999 -9999 -9999 -9999 -9999 -9999 -9999 -9999 -9999 -9999 -9999 -9999 -9999 -9999 -9999 -9999 -9999 -9999 -9999 -9999 -9999 -9999 -9999 -9999 -9999 -9999 -9999 -9999 -9999 -9999 -9999 -9999 -9999 -9999 -9999 -9999 -9999 -9999 -9999 -9999 -9999 -9999 -9999 -9999 -9999 -9999 -9999 -9999 -9999 -9999 -9999 -9999 -9999 -9999 -9999 -9999 -9999 -9999 -9999 -9999 -9999 -9999 -9999 -9999 -9999 -9999 -9999 -9999 -9999 -9999 -9999 -9999 -9999 -9999 -9999 -9999 -9999 -9999 -9999 -9999 -9999 -9999 -9999 -9999 -9999 -9999 -9999 -9999 -9999 -9999 -9999 -9999 -9999 -9999 -9999
-9999 -9999 -9999 -9999 -9999 -9999 -9999 -9999 -9999 -9999 -9999 -9999 -9999 -9999 -9999 -9999 -9999 -9999 -9999 -9999 -9999 -9999 -9999 1387.733 1384.711 1382.071 1379.338 1376.952 1374.338 1372.463 1370.405 1368.708 1367.144 1365.6 1364.368 1363.243 1361.837 1360.797 1359.131 1360.331 1358.927 1358.154 1357.267 1356.427 1355.993 1355.426 1354.883 1354.057 1353.81 1353.654 1353.095 1352.405 1352.17 -9999 -9999 -9999 -9999 -9999 -9999 -9999 -9999 -9999 -9999 -9999 -9999 -9999 -9999 -9999 -9999 -9999 -9999 -9999 -9999 -9999 -9999 -9999 -9999 -9999 -9999 -9999 1305.119 1303.845 1301.75 1299.587 1297.077 1294.288 1291.637 1288.539 1285.142 1281.334 1279.283 1277.301 1275.292 1273.196 1271.116 1268.967 1267.15 1265.406 1263.743 1262.25 1260.844 1259.218 1257.454 1255.659 1253.879 1252.087 1250.269 1248.656 1246.947 1245.122 1243.223 1241.207 1239.192 1237.286 1235.461 1233.731 1232.059 1230.425 1228.815 1227.168 1225.518 1223.954 1222.443 1221.031 1219.63 1218.387 1217.222 1216.136 1215.13 1214.165 1213.207 1212.322 1211.491 1210.757 1209.962 1208.265 1206.624 1205.036 1203.5 1202.032 1200.572 1199.334 1198.409 1197.608 1196.854 1196.105 1195.355 1194.609 1193.867 1193.128 1192.362 1191.724 1191.022 1190.365 1189.704 1188.903 1187.998 1187.043 1186.078 1185.088 1184.12 1183.152 1182.184 1181.15 1180.012 1178.78 1177.545 1176.349 1175.201 1174.093 1172.991 1171.902 1170.846 1169.786 1168.82 1167.848 1166.888 1165.941 1165.024 1164.112 1163.253 1162.437 1161.643 1160.864 1160.102 1159.351 1158.573 1157.723 1156.87 1156.056 1155.293 1154.566 1153.813 1153.054 1152.256 1151.401 1150.487 1149.58 1148.687 1147.829 1146.978 1146.121 1145.286 1144.501 1143.782 1143.066 1142.562 1142.021 1141.495 1140.807 1140.106 1139.394 1138.713 1137.959 1137.119 1136.259 1135.396 1134.569 1133.71 1132.862 1132.038 1131.24 1130.453 1129.528 1128.503 1127.47 1126.483 1125.494 1124.518 1123.534 1122.597 1121.707 1120.843 1119.862 1118.757 1117.725 1116.769 1115.938 1115.156 1114.453 1113.781 1113.171 1112.55 1111.895 1111.222 1110.512 1109.824 1109.126 1108.429 1107.694 1106.895 -9999 -9999 -9999 -9999 -9999 -9999 -9999 -9999 -9999 1101.082 1100.487 1099.574 1098.693 1097.851 1097.028 1096.039 1095.156 1094.208 -9999 -9999 -9999 -9999 -9999 1089.259 1088.802 1088.437 1088.095 -9999 -9999 -9999 -9999 -9999 -9999 -9999 -9999 -9999 -9999 -9999 -9999 -9999 -9999 -9999 -9999 -9999 -9999 -9999 -9999 -9999 -9999 -9999 -9999 -9999 -9999 -9999 -9999 -9999 -9999 -9999 -9999 -9999 -9999 -9999 -9999 -9999 -9999 -9999 -9999 -9999 -9999 -9999 -9999 -9999 -9999 -9999 -9999 -9999 -9999 -9999 -9999 -9999 -9999 -9999 -9999 -9999 -9999 -9999 -9999 -9999 -9999 -9999 -9999 -9999 -9999 -9999 -9999 -9999 -9999 -9999 -9999 -9999 -9999 -9999 -9999 -9999 -9999 -9999 -9999 -9999 -9999 -9999 -9999 -9999 -9999 -9999 -9999 -9999 -9999 -9999 -9999 -9999 -9999 -9999 -9999 -9999 -9999 -9999 -9999 -9999 -9999 -9999 -9999 -9999 -9999 -9999 -9999 -9999 -9999 -9999 -9999 -9999 -9999 -9999 -9999 -9999 -9999 -9999 -9999 -9999 -9999 -9999 -9999 -9999 -9999 -9999 -9999 -9999 -9999
-9999 -9999 -9999 -9999 -9999 -9999 -9999 -9999 -9999 -9999 -9999 -9999 -9999 -9999 -9999 -9999 -9999 -9999 -9999 -9999 -9999 -9999 1393.708 1390.871 1388.207 1385.67 1383.214 1380.861 1378.786 1377.019 1375.16 1373.559 1372.095 1370.394 1369.142 1367.812 1366.636 1365.551 1364.688 1364.759 1363.717 1363.041 1362.763 1362.021 1361.395 1360.826 1360.375 1359.23 1358.875 1358.67 1358.329 1357.848 1357.214 -9999 -9999 -9999 -9999 -9999 -9999 -9999 -9999 -9999 -9999 -9999 -9999 -9999 -9999 -9999 -9999 -9999 -9999 -9999 -9999 -9999 -9999 -9999 -9999 -9999 -9999 -9999 1308.016 1306.436 1304.25 1302.029 1299.778 1297.76 1295.309 1292.784 1290.339 1287.195 1283.914 1281.257 1278.826 1276.514 1274.173 1271.85 1269.754 1267.826 1265.997 1264.398 1262.869 1261.255 1259.575 1257.932 1256.148 1254.304 1252.45 1250.663 1248.807 1246.849 1244.811 1242.724 1240.607 1238.603 1236.69 1234.868 1233.15 1231.494 1229.916 1228.204 1226.4 1224.711 1223.144 1221.641 1220.197 1218.905 1217.769 1216.727 1215.768 1214.934 1214.014 1213.236 1212.442 1211.659 1210.791 1209.437 1207.893 1206.32 1204.741 1203.17 1201.629 1200.223 1199.365 1198.531 1197.72 1196.937 1196.146 1195.366 1194.596 1193.79 1193.052 1192.348 1191.715 1191.039 1190.396 1189.697 1188.671 1187.642 1186.634 1185.607 1184.616 1183.619 1182.601 1181.539 1180.414 1179.253 1178.11 1176.996 1175.933 1174.88 1173.849 1172.86 1171.865 1170.907 1169.976 1169.052 1168.13 1167.199 1166.298 1165.42 1164.571 1163.75 1162.976 1162.211 1161.501 1160.797 1160.115 1159.264 1158.443 1157.672 1156.92 1156.184 1155.42 1154.624 1153.784 1152.88 1151.951 1150.992 1150.066 1149.173 1148.285 1147.368 1146.512 1145.698 1144.858 1144.161 1143.531 1143.082 1142.436 1141.876 1141.264 1140.674 1140.085 1139.451 1138.56 1137.7 1136.859 1136.003 1135.136 1134.268 1133.437 1132.621 1131.79 1130.878 1129.897 1128.927 1127.951 1126.983 1125.964 1124.967 1124.015 1123.074 1122.146 1121.157 1120.12 1119.125 1118.183 1117.323 1116.588 1115.862 1115.198 1114.613 1113.99 1113.35 1112.676 1112.014 1111.306 1110.65 1109.993 1109.289 -9999 -9999 -9999 -9999 -9999 -9999 -9999 -9999 -9999 -9999 -9999 -9999 1101.363 1100.633 1099.919 1099.111 1098.319 1097.577 -9999 -9999 -9999 -9999 -9999 -9999 -9999 -9999 -9999 -9999 -9999 -9999 -9999 -9999 -9999 -9999 -9999 -9999 -9999 -9999 -9999 -9999 -9999 -9999 -9999 -9999 -9999 -9999 -9999 -9999 -9999 -9999 -9999 -9999 -9999 -9999 -9999 -9999 -9999 -9999 -9999 -9999 -9999 -9999 -9999 -9999 -9999 -9999 -9999 -9999 -9999 -9999 -9999 -9999 -9999 -9999 -9999 -9999 -9999 -9999 -9999 -9999 -9999 -9999 -9999 -9999 -9999 -9999 -9999 -9999 -9999 -9999 -9999 -9999 -9999 -9999 -9999 -9999 -9999 -9999 -9999 -9999 -9999 -9999 -9999 -9999 -9999 -9999 -9999 -9999 -9999 -9999 -9999 -9999 -9999 -9999 -9999 -9999 -9999 -9999 -9999 -9999 -9999 -9999 -9999 -9999 -9999 -9999 -9999 -9999 -9999 -9999 -9999 -9999 -9999 -9999 -9999 -9999 -9999 -9999 -9999 -9999 -9999 -9999 -9999 -9999 -9999 -9999 -9999 -9999 -9999 -9999 -9999 -9999 -9999 -9999 -9999 -9999 -9999 -9999
-9999 -9999 -9999 -9999 -9999 -9999 -9999 -9999 -9999 -9999 -9999 -9999 -9999 -9999 -9999 -9999 -9999 -9999 -9999 -9999 -9999 -9999 1396.182 1393.566 1391.448 1389.284 1386.988 1384.974 1382.969 1381.155 1379.818 1378.25 1376.794 1375.316 1374.223 1372.961 1371.901 1371.034 1370.021 1369.169 1369.06 1368.472 1367.587 1366.758 1366.016 1365.336 1364.883 1364.316 1364.327 1363.904 1363.65 1362.512 1362.621 -9999 -9999 -9999 -9999 -9999 -9999 -9999 -9999 -9999 -9999 -9999 -9999 -9999 -9999 -9999 -9999 -9999 -9999 -9999 -9999 -9999 -9999 -9999 -9999 -9999 -9999 -9999 1311.726 1309.251 1307.26 1304.853 1302.981 1301.176 1298.96 1296.626 1294.182 1291.43 1288.175 1285.156 1282.505 1280.004 1277.494 1275.022 1272.659 1270.334 1268.212 1266.506 1264.92 1263.314 1261.708 1260.063 1258.453 1256.626 1254.656 1252.693 1250.76 1248.658 1246.482 1244.3 1242.102 1239.917 1237.892 1235.97 1234.144 1232.452 1230.84 1229.026 1227.133 1225.404 1223.784 1222.254 1220.75 1219.397 1218.269 1217.282 1216.324 1215.531 1214.713 1213.979 1213.21 1212.35 1211.433 1210.351 1209.039 1207.536 1205.958 1204.391 1202.895 1201.565 1200.495 1199.546 1198.661 1197.813 1196.966 1196.138 1195.28 1194.478 1193.715 1192.984 1192.266 1191.619 1190.93 1190.156 1189.164 1188.134 1187.081 1186.067 1185.071 1184.051 1183.016 1181.917 1180.818 1179.693 1178.57 1177.576 1176.599 1175.645 1174.703 1173.793 1172.887 1171.996 1171.12 1170.218 1169.319 1168.423 1167.557 1166.715 1165.879 1165.065 1164.28 1163.542 1162.824 1162.154 1161.455 1160.708 1159.964 1159.231 1158.52 1157.799 1157.036 1156.208 1155.309 1154.4 1153.442 1152.459 1151.469 1150.508 1149.561 1148.601 1147.691 1146.743 1145.886 1145.165 1144.505 1143.889 1143.384 1142.868 1142.315 1141.751 1141.217 1140.596 1139.825 1139.04 1138.221 1137.375 1136.483 1135.609 1134.756 1133.907 1133.038 1132.137 1131.222 1130.299 1129.38 1128.418 1127.382 1126.341 1125.321 1124.375 1123.398 1122.396 1121.41 1120.448 1119.525 1118.682 1117.934 1117.257 1116.601 1115.992 1115.406 1114.773 1114.127 1113.438 1112.771 1112.103 1111.442 -9999 -9999 -9999 -9999 -9999 -9999 -9999 -9999 -9999 -9999 -9999 -9999 -9999 -9999 -9999 1101.694 1101.025 -9999 -9999 -9999 -9999 -9999 -9999 -9999 -9999 -9999 -9999 -9999 -9999 -9999 -9999 -9999 -9999 -9999 -9999 -9999 -9999 -9999 -9999 -9999 -9999 -9999 -9999 -9999 -9999 -9999 -9999 -9999 -9999 -9999 -9999 -9999 -9999 -9999 -9999 -9999 -9999 -9999 -9999 -9999 -9999 -9999 -9999 -9999 -9999 -9999 -9999 -9999 -9999 -9999 -9999 -9999 -9999 -9999 -9999 -9999 -9999 -9999 -9999 -9999 -9999 -9999 -9999 -9999 -9999 -9999 -9999 -9999 -9999 -9999 -9999 -9999 -9999 -9999 -9999 -9999 -9999 -9999 -9999 -9999 -9999 -9999 -9999 -9999 -9999 -9999 -9999 -9999 -9999 -9999 -9999 -9999 -9999 -9999 -9999 -9999 -9999 -9999 -9999 -9999 -9999 -9999 -9999 -9999 -9999 -9999 -9999 -9999 -9999 -9999 -9999 -9999 -9999 -9999 -9999 -9999 -9999 -9999 -9999 -9999 -9999 -9999 -9999 -9999 -9999 -9999 -9999 -9999 -9999 -9999 -9999 -9999 -9999 -9999 -9999 -9999 -9999 -9999 -9999
-9999 -9999 -9999 -9999 -9999 -9999 -9999 -9999 -9999 -9999 -9999 -9999 -9999 -9999 -9999 -9999 -9999 -9999 -9999 -9999 -9999 -9999 1398.261 1396.491 1394.841 1392.69 1390.799 1388.875 1387.136 1385.495 1384.008 1382.562 1381.23 1380.012 1379.042 1378.022 1377.238 1376.247 1375.399 1374.568 1374.413 1373.7 1372.842 1372.116 -9999 -9999 -9999 -9999 1369.284 1368.535 1368.283 1367.808 1367.22 -9999 -9999 -9999 -9999 -9999 -9999 -9999 -9999 -9999 -9999 -9999 -9999 -9999 -9999 -9999 -9999 -9999 -9999 -9999 -9999 -9999 -9999 -9999 -9999 -9999 -9999 -9999 1315.982 1313.37 1310.43 1308.111 1306.873 1304.927 1302.8 1300.248 1297.607 1294.771 1291.976 1288.903 1286.143 1283.546 1280.892 1278.354 1275.738 1273.161 1270.764 1268.893 1267.123 1265.445 1263.822 1262.272 1260.721 1258.93 1256.812 1254.729 1252.626 1250.491 1248.208 1245.875 1243.533 1241.251 1239.058 1237.004 1235.051 1233.196 1231.437 1229.509 1227.699 1226.022 1224.43 1222.896 1221.419 1220.044 1218.836 1217.817 1216.965 1216.129 1215.347 1214.652 1213.813 1213.031 1212.159 1211.181 1210.101 1208.699 1207.141 1205.61 1204.168 1202.853 1201.685 1200.625 1199.657 1198.727 1197.814 1196.886 1196.007 1195.173 1194.358 1193.575 1192.827 1192.078 1191.344 1190.471 1189.532 1188.531 1187.507 1186.5 1185.506 1184.493 1183.426 1182.343 1181.233 1180.091 1179.063 1178.147 1177.26 1176.429 1175.588 1174.738 1173.897 1173.064 1172.227 1171.352 1170.492 1169.658 1168.827 1167.996 1167.167 1166.357 1165.575 1164.829 1164.115 1163.451 1162.789 1162.104 1161.423 1160.742 1160.078 1159.419 1158.637 1157.773 1156.875 1155.94 1154.943 1153.905 1152.868 1151.834 1150.817 1149.831 1148.782 1147.773 1146.868 1146.102 1145.398 1144.798 1144.247 1143.802 1143.223 1142.695 1142.143 1141.58 1140.924 1140.24 1139.535 1138.657 1137.757 1136.866 1135.968 1135.099 1134.216 1133.361 1132.481 1131.598 1130.713 1129.817 1128.724 1127.637 1126.601 1125.591 1124.604 1123.633 1122.678 1121.717 1120.833 1119.982 1119.292 1118.644 1118.013 1117.4 1116.805 1116.169 1115.523 1114.865 1114.159 1113.497 -9999 -9999 -9999 -9999 -9999 -9999 -9999 -9999 -9999 -9999 -9999 -9999 -9999 -9999 -9999 -9999 -9999 -9999 -9999 -9999 -9999 -9999 -9999 -9999 -9999 -9999 -9999 -9999 -9999 -9999 -9999 -9999 -9999 -9999 -9999 -9999 -9999 -9999 -9999 -9999 -9999 -9999 -9999 -9999 -9999 -9999 -9999 -9999 -9999 -9999 -9999 -9999 -9999 -9999 -9999 -9999 -9999 -9999 -9999 -9999 -9999 -9999 -9999 -9999 -9999 -9999 -9999 -9999 -9999 -9999 -9999 -9999 -9999 -9999 -9999 -9999 -9999 -9999 -9999 -9999 -9999 -9999 -9999 -9999 -9999 -9999 -9999 -9999 -9999 -9999 -9999 -9999 -9999 -9999 -9999 -9999 -9999 -9999 -9999 -9999 -9999 -9999 -9999 -9999 -9999 -9999 -9999 -9999 -9999 -9999 -9999 -9999 -9999 -9999 -9999 -9999 -9999 -9999 -9999 -9999 -9999 -9999 -9999 -9999 -9999 -9999 -9999 -9999 -9999 -9999 -9999 -9999 -9999 -9999 -9999 -9999 -9999 -9999 -9999 -9999 -9999 -9999 -9999 -9999 -9999 -9999 -9999 -9999 -9999 -9999 -9999 -9999 -9999 -9999 -9999 -9999 -9999 -9999 -9999 -9999
-9999 -9999 -9999 -9999 -9999 -9999 -9999 -9999 -9999 -9999 -9999 -9999 -9999 -9999 -9999 -9999 -9999 -9999 -9999 -9999 -9999 -9999 1401.117 1399.647 1398.023 1396.367 1394.527 1392.844 1391.247 1389.734 1388.325 1386.937 1385.784 1384.796 1383.99 1383.17 1382.2 1381.539 1380.705 1379.822 1379.119 -9999 -9999 -9999 -9999 -9999 -9999 -9999 -9999 -9999 -9999 1373.141 -9999 -9999 -9999 -9999 -9999 -9999 -9999 -9999 -9999 -9999 -9999 -9999 -9999 -9999 -9999 -9999 -9999 -9999 -9999 -9999 -9999 -9999 -9999 -9999 -9999 -9999 -9999 -9999 -9999 1318.84 1316.424 1313.485 1311.506 1309.356 1306.577 1303.666 1300.96 1298.167 1295.54 1292.737 1289.941 1287.2 1284.429 1281.679 1278.935 1276.181 1273.694 1271.529 1269.501 1267.65 1266.021 1264.413 1262.734 1260.875 1258.869 1256.697 1254.475 1252.24 1249.961 1247.5 1245.042 1242.606 1240.211 1238.028 1235.95 1233.978 1231.946 1230.016 1228.229 1226.622 1225.15 1223.644 1222.17 1220.761 1219.453 1218.344 1217.472 1216.735 1215.976 1215.21 1214.48 1213.707 1212.894 1211.965 1210.924 1209.683 1208.243 1206.79 1205.388 1204.081 1202.867 1201.749 1200.689 1199.67 1198.667 1197.689 1196.745 1195.857 1194.994 1194.178 1193.366 1192.506 1191.676 1190.828 1189.865 1188.879 1187.907 1186.921 1185.938 1184.929 1183.885 1182.822 1181.709 1180.584 1179.583 1178.807 1178.037 1177.235 1176.48 1175.695 1174.9 1174.119 1173.296 1172.481 1171.684 1170.88 1170.084 1169.281 1168.442 1167.63 1166.836 1166.069 1165.374 1164.727 1164.097 1163.475 1162.844 1162.196 1161.572 1160.928 1160.156 1159.292 1158.411 1157.453 1156.43 1155.35 1154.244 1153.142 1152.053 1150.95 1149.823 1148.739 1147.805 1146.977 1146.29 1145.683 1145.124 1144.614 1144.102 1143.56 1143.046 1142.494 1141.876 1141.259 1140.613 1139.778 1138.894 1138.013 1137.104 1136.244 1135.4 1134.55 1133.687 1132.787 1131.895 1130.97 1129.933 1128.847 1127.821 1126.793 1125.797 1124.85 1123.888 1122.992 1122.133 1121.353 1120.664 1120.029 1119.406 1118.809 1118.212 1117.565 1116.925 1116.233 1115.51 1114.797 1114.106 -9999 -9999 -9999 -9999 -9999 -9999 -9999 -9999 -9999 -9999 -9999 1106.701 1106.249 1105.816 1105.215 1104.717 -9999 -9999 -9999 -9999 -9999 -9999 -9999 -9999 -9999 -9999 -9999 -9999 -9999 -9999 -9999 -9999 -9999 -9999 -9999 -9999 -9999 -9999 -9999 -9999 -9999 -9999 -9999 -9999 -9999 -9999 -9999 -9999 -9999 -9999 -9999 -9999 -9999 -9999 -9999 -9999 -9999 -9999 -9999 -9999 -9999 -9999 -9999 -9999 -9999 -9999 -9999 -9999 -9999 -9999 -9999 -9999 -9999 -9999 -9999 -9999 -9999 -9999 -9999 -9999 -9999 -9999 -9999 -9999 -9999 -9999 -9999 -9999 -9999 -9999 -9999 -9999 -9999 -9999 -9999 -9999 -9999 -9999 -9999 -9999 -9999 -9999 -9999 -9999 -9999 -9999 -9999 -9999 -9999 -9999 -9999 -9999 -9999 -9999 -9999 -9999 -9999 -9999 -9999 -9999 -9999 -9999 -9999 -9999 -9999 -9999 -9999 -9999 -9999 -9999 -9999 -9999 -9999 -9999 -9999 -9999 -9999 -9999 -9999 -9999 -9999 -9999 -9999 -9999 -9999 -9999 -9999 -9999 -9999 -9999 -9999 -9999 -9999 -9999 -9999 -9999 -9999 -9999 -9999
-9999 -9999 -9999 -9999 -9999 -9999 -9999 -9999 -9999 -9999 -9999 -9999 -9999 -9999 -9999 -9999 -9999 -9999 -9999 -9999 -9999 -9999 1405.043 1403.347 1401.747 1400.11 1398.468 1396.756 1395.226 1393.848 1392.472 1391.303 1390.247 1389.341 1388.727 1387.995 1387.396 1386.673 1385.798 -9999 -9999 -9999 -9999 -9999 -9999 -9999 -9999 -9999 -9999 -9999 -9999 -9999 -9999 -9999 -9999 -9999 -9999 -9999 -9999 -9999 -9999 -9999 -9999 -9999 -9999 -9999 -9999 -9999 -9999 -9999 -9999 -9999 -9999 -9999 -9999 -9999 -9999 -9999 -9999 -9999 -9999 -9999 1322.569 1319.435 1316.891 1314.213 1310.926 1307.197 1304.066 1301.625 1299.437 1296.833 1293.892 1290.98 1288.045 1285.217 1282.19 1279.384 1276.659 1274.302 1272.025 1270.018 1268.197 1266.499 1264.736 1262.827 1260.798 1258.725 1256.405 1254.095 1251.715 1249.182 1246.632 1244.048 1241.587 1239.234 1237.022 1234.894 1232.782 1230.614 1228.918 1227.438 1225.973 1224.53 1223.074 1221.618 1220.252 1219.101 1218.12 1217.308 1216.506 1215.893 1215.164 1214.312 1213.614 1212.652 1211.662 1210.535 1209.249 1207.896 1206.556 1205.262 1204.041 1202.884 1201.766 1200.673 1199.581 1198.518 1197.498 1196.551 1195.651 1194.773 1193.86 1192.982 1192.106 1191.172 1190.247 1189.265 1188.28 1187.345 1186.385 1185.424 1184.432 1183.38 1182.349 1181.313 1180.384 1179.609 1178.856 1178.129 1177.409 1176.667 1175.94 1175.185 1174.4 1173.638 1172.869 1172.099 1171.326 1170.527 1169.698 1168.866 1168.07 1167.309 1166.613 1165.992 1165.405 1164.825 1164.218 1163.615 1162.989 1162.319 1161.566 1160.75 1159.897 1158.993 1157.945 1156.798 1155.6 1154.432 1153.256 1152.066 1150.861 1149.676 1148.695 1147.878 1147.169 1146.563 1146.012 1145.457 1144.936 1144.44 1143.927 1143.335 1142.768 1142.162 1141.501 1140.765 1139.933 1139.058 1138.198 1137.348 1136.507 1135.701 1134.804 1133.912 1133.039 1132.09 1131.087 1130.05 1128.999 1127.977 1127.01 1126.052 1125.139 1124.247 1123.433 1122.687 1122.019 1121.392 1120.793 1120.218 1119.646 1118.986 1118.288 1117.567 1116.845 1116.139 1115.428 1114.736 -9999 -9999 -9999 -9999 -9999 -9999 -9999 -9999 1108.851 1108.4 1107.956 1107.558 1107.065 1106.606 1106.077 1105.576 1105.024 1104.469 -9999 -9999 -9999 -9999 -9999 -9999 -9999 -9999 -9999 -9999 -9999 -9999 -9999 -9999 -9999 -9999 -9999 -9999 -9999 -9999 -9999 -9999 -9999 -9999 -9999 -9999 -9999 -9999 -9999 -9999 -9999 -9999 -9999 -9999 -9999 -9999 -9999 -9999 -9999 -9999 -9999 -9999 -9999 -9999 -9999 -9999 -9999 -9999 -9999 -9999 -9999 -9999 -9999 -9999 -9999 -9999 -9999 -9999 -9999 -9999 -9999 -9999 -9999 -9999 -9999 -9999 -9999 -9999 -9999 -9999 -9999 -9999 -9999 -9999 -9999 -9999 -9999 -9999 -9999 -9999 -9999 -9999 -9999 -9999 -9999 -9999 -9999 -9999 -9999 -9999 -9999 -9999 -9999 -9999 -9999 -9999 -9999 -9999 -9999 -9999 -9999 -9999 -9999 -9999 -9999 -9999 -9999 -9999 -9999 -9999 -9999 -9999 -9999 -9999 -9999 -9999 -9999 -9999 -9999 -9999 -9999 -9999 -9999 -9999 -9999 -9999 -9999 -9999 -9999 -9999 -9999 -9999 -9999 -9999 -9999 -9999 -9999 -9999 -9999 -9999
-9999 -9999 -9999 -9999 -9999 -9999 -9999 -9999 -9999 -9999 -9999 -9999 -9999 -9999 -9999 -9999 -9999 -9999 -9999 -9999 -9999 -9999 1408.961 1407.227 1405.599 1403.987 1402.321 1400.717 1399.276 1397.914 1396.409 1395.205 1394.278 1393.601 1393.24 1392.959 1392.51 1391.734 -9999 -9999 -9999 -9999 -9999 -9999 -9999 -9999 -9999 -9999 -9999 -9999 -9999 -9999 -9999 -9999 -9999 -9999 -9999 -9999 -9999 -9999 -9999 -9999 -9999 -9999 -9999 -9999 -9999 -9999 -9999 -9999 -9999 -9999 -9999 -9999 -9999 -9999 -9999 -9999 -9999 -9999 -9999 -9999 -9999 1324.587 1321.878 1319.303 1314.593 1310.447 1306.969 1304.888 1302.984 1300.503 1297.691 1295.004 1292.201 1289.069 1285.719 1282.5 1279.609 1277.103 1274.771 1272.572 1270.593 1268.688 1266.802 1264.987 1262.959 1260.762 1258.403 1256.056 1253.627 1251.007 1248.347 1245.677 1243.065 1240.645 1238.302 1236.07 1233.969 1231.958 1230.171 1228.582 1227.057 1225.621 1224.162 1222.72 1221.305 1219.998 1218.907 1217.989 1217.211 1216.504 1215.801 1215.005 1214.292 1213.424 1212.456 1211.418 1210.238 1208.979 1207.688 1206.43 1205.217 1204.043 1202.862 1201.701 1200.542 1199.385 1198.273 1197.248 1196.319 1195.383 1194.43 1193.503 1192.598 1191.635 1190.655 1189.662 1188.728 1187.823 1186.928 1186.003 1185.031 1184.072 1183.109 1182.19 1181.325 1180.512 1179.775 1179.068 1178.36 1177.684 1176.971 1176.251 1175.536 1174.806 1174.069 1173.32 1172.558 1171.77 1170.955 1170.121 1169.298 1168.533 1167.839 1167.24 1166.699 1166.146 1165.604 1165.018 1164.388 1163.701 1162.95 1162.147 1161.306 1160.457 1159.364 1158.161 1156.958 1155.716 1154.51 1153.281 1152.029 1150.776 1149.728 1148.818 1148.085 1147.483 1146.895 1146.331 1145.83 1145.317 1144.75 1144.213 1143.638 1143.049 1142.409 1141.681 1140.904 1140.086 1139.269 1138.443 1137.617 1136.785 1135.92 1135.068 1134.184 1133.245 1132.274 1131.241 1130.198 1129.173 1128.23 1127.302 1126.382 1125.51 1124.723 1124.017 1123.369 1122.75 1122.18 1121.616 1121.039 1120.374 1119.662 1118.899 1118.188 1117.473 1116.762 1116.059 1115.385 -9999 -9999 -9999 -9999 -9999 1111.346 1110.811 1110.28 1109.759 1109.243 1108.768 1108.388 1107.924 1107.468 1106.94 1106.381 1105.79 1105.196 1104.469 1103.643 1102.959 1102.344 1101.868 -9999 -9999 -9999 -9999 -9999 -9999 -9999 -9999 -9999 -9999 -9999 -9999 -9999 -9999 -9999 -9999 -9999 -9999 -9999 -9999 -9999 -9999 -9999 -9999 -9999 -9999 -9999 -9999 -9999 -9999 -9999 -9999 -9999 -9999 -9999 -9999 -9999 -9999 -9999 -9999 -9999 -9999 -9999 -9999 -9999 -9999 -9999 -9999 -9999 -9999 -9999 -9999 -9999 -9999 -9999 -9999 -9999 -9999 -9999 -9999 -9999 -9999 -9999 -9999 -9999 -9999 -9999 -9999 -9999 -9999 -9999 -9999 -9999 -9999 -9999 -9999 -9999 -9999 -9999 -9999 -9999 -9999 -9999 -9999 -9999 -9999 -9999 -9999 -9999 -9999 -9999 -9999 -9999 -9999 -9999 -9999 -9999 -9999 -9999 -9999 -9999 -9999 -9999 -9999 -9999 -9999 -9999 -9999 -9999 -9999 -9999 -9999 -9999 -9999 -9999 -9999 -9999 -9999 -9999 -9999 -9999 -9999 -9999 -9999 -9999 -9999 -9999 -9999 -9999 -9999 -9999 -9999 -9999 -9999
-9999 -9999 -9999 -9999 -9999 -9999 -9999 -9999 -9999 -9999 -9999 -9999 -9999 -9999 -9999 -9999 -9999 -9999 -9999 -9999 -9999 -9999 -9999 1411.129 1409.482 1407.856 1406.334 1404.77 1403.455 1401.95 1400.552 1399.238 1398.221 1397.867 1397.751 1397.726 1397.534 -9999 -9999 -9999 -9999 -9999 -9999 -9999 -9999 -9999 -9999 -9999 -9999 -9999 -9999 -9999 -9999 -9999 -9999 -9999 -9999 -9999 -9999 -9999 -9999 -9999 -9999 -9999 -9999 -9999 -9999 -9999 -9999 -9999 -9999 -9999 -9999 -9999 -9999 -9999 -9999 -9999 -9999 -9999 -9999 -9999 -9999 -9999 -9999 1322.333 1318.534 1314.07 1310.35 1308.621 1306.357 1303.719 1301.163 1298.934 1296.682 1293.181 1289.159 1285.708 1282.808 1280.077 1277.561 1275.187 1272.939 1270.899 1269.023 1267.389 1265.52 1263.267 1260.656 1258.342 1255.88 1253.148 1250.272 1247.443 1244.824 1242.308 1239.857 1237.611 1235.582 1233.704 1231.864 1230.078 1228.439 1226.932 1225.518 1224.022 1222.529 1221.142 1219.923 1218.981 1218.064 1217.289 1216.578 1215.938 1215.147 1214.277 1213.32 1212.31 1211.21 1210.046 1208.824 1207.595 1206.419 1205.225 1204.043 1202.822 1201.562 1200.308 1199.064 1197.989 1197.025 1196.064 1195.074 1194.102 1193.172 1192.164 1191.165 1190.145 1189.27 1188.395 1187.515 1186.636 1185.726 1184.833 1183.956 1183.101 1182.262 1181.497 1180.773 1180.057 1179.381 1178.715 1178.053 1177.378 1176.698 1176.008 1175.297 1174.554 1173.805 1173.029 1172.211 1171.401 1170.564 1169.753 1169.045 1168.516 1168.012 1167.519 1166.983 1166.412 1165.792 1165.085 1164.314 1163.482 1162.623 1161.691 1160.621 1159.456 1158.211 1156.997 1155.804 1154.602 1153.338 1152.143 1150.967 1149.852 1149.099 1148.503 1147.881 1147.278 1146.72 1146.181 1145.644 1145.066 1144.509 1143.92 1143.245 1142.607 1141.842 1141.09 1140.327 1139.531 1138.73 1137.896 1137.071 1136.232 1135.347 1134.446 1133.505 1132.503 1131.487 1130.48 1129.541 1128.591 1127.648 1126.775 1126.022 1125.337 1124.722 1124.139 1123.573 1122.998 1122.407 1121.729 1121.022 1120.309 1119.588 1118.868 1118.147 1117.448 1116.754 1116.127 1115.431 1114.694 1114.045 1113.429 1112.84 1112.299 1111.747 1111.185 1110.599 1110.131 1109.692 1109.294 1108.737 1108.164 1107.747 1107.167 1106.502 1105.757 1105.147 1104.464 1103.862 1103.387 1102.977 -9999 -9999 -9999 -9999 -9999 -9999 -9999 -9999 -9999 -9999 -9999 -9999 -9999 -9999 -9999 -9999 -9999 -9999 -9999 -9999 -9999 -9999 -9999 -9999 -9999 -9999 -9999 -9999 -9999 -9999 -9999 -9999 -9999 -9999 -9999 -9999 -9999 -9999 -9999 -9999 -9999 -9999 -9999 -9999 -9999 -9999 -9999 -9999 -9999 -9999 -9999 -9999 -9999 -9999 -9999 -9999 -9999 -9999 -9999 -9999 -9999 -9999 -9999 -9999 -9999 -9999 -9999 -9999 -9999 -9999 -9999 -9999 -9999 -9999 -9999 -9999 -9999 -9999 -9999 -9999 -9999 -9999 -9999 -9999 -9999 -9999 -9999 -9999 -9999 -9999 -9999 -9999 -9999 -9999 -9999 -9999 -9999 -9999 -9999 -9999 -9999 -9999 -9999 -9999 -9999 -9999 -9999 -9999 -9999 -9999 -9999 -9999 -9999 -9999 -9999 -9999 -9999 -9999 -9999 -9999 -9999 -9999 -9999 -9999 -9999 -9999 -9999 -9999 -9999 -9999 -9999 -9999 -9999
-9999 -9999 -9999 -9999 -9999 -9999 -9999 -9999 -9999 -9999 -9999 -9999 -9999 -9999 -9999 -9999 -9999 -9999 -9999 -9999 -9999 -9999 -9999 1414.964 1413.349 1411.022 1410.139 1408.732 1407.268 1406.036 1404.6 1403.292 1402.295 1402.061 1401.993 -9999 -9999 -9999 -9999 -9999 -9999 -9999 -9999 -9999 -9999 -9999 -9999 -9999 -9999 -9999 -9999 -9999 -9999 -9999 -9999 -9999 -9999 -9999 -9999 -9999 -9999 -9999 -9999 -9999 -9999 -9999 -9999 -9999 -9999 -9999 -9999 -9999 -9999 -9999 -9999 -9999 -9999 -9999 -9999 -9999 -9999 -9999 -9999 -9999 -9999 -9999 1323.097 1319.298 1316.025 1313.518 1310.558 1306.95 1304.076 1302.296 1300.819 1296.998 1292.633 1289.216 1286.264 1283.273 1280.457 1277.865 1275.431 1273.39 1271.631 1270.089 1268.463 1266.208 1263.682 1261.143 1258.499 1255.617 1252.57 1249.513 1246.819 1244.45 1242.097 1239.755 1237.598 1235.805 1233.948 1232.035 1230.114 1228.697 1227.135 1225.539 1223.994 1222.547 1221.27 1220.142 1219.148 1218.272 1217.55 1216.862 1216.057 1215.238 1214.313 1213.326 1212.307 1211.141 1209.969 1208.799 1207.642 1206.506 1205.308 1204.058 1202.731 1201.339 1199.916 1198.87 1197.859 1196.838 1195.783 1194.788 1193.806 1192.821 1191.831 1190.854 1189.94 1189.084 1188.2 1187.338 1186.511 1185.681 1184.868 1184.02 1183.254 1182.501 1181.803 1181.125 1180.459 1179.82 1179.195 1178.554 1177.906 1177.245 1176.541 1175.836 1175.105 1174.332 1173.533 1172.728 1171.917 1171.092 1170.356 1169.865 1169.389 1168.904 1168.406 1167.847 1167.194 1166.456 1165.643 1164.8 1163.89 1162.925 1161.859 1160.714 1159.525 1158.308 1157.155 1155.971 1154.801 1153.63 1152.464 1151.323 1150.458 1149.731 1149.009 1148.335 1147.738 1147.163 1146.584 1146.017 1145.465 1144.843 1144.197 1143.522 1142.874 1142.148 1141.406 1140.637 1139.845 1139.048 1138.238 1137.4 1136.577 1135.705 1134.791 1133.855 1132.885 1131.917 1130.948 1129.957 1128.976 1128.066 1127.317 1126.678 1126.089 1125.553 1124.973 1124.409 1123.817 1123.124 1122.443 1121.748 1121.025 1120.287 1119.552 1118.87 1118.205 1117.545 1116.873 1116.217 1115.565 1114.943 1114.361 1113.786 1113.258 1112.67 1112.104 1111.581 1111.122 1110.612 1110.038 1109.529 1108.983 1108.497 1107.758 1107.118 1106.53 1105.908 1105.322 1104.759 1104.317 1103.923 -9999 -9999 -9999 -9999 -9999 -9999 -9999 -9999 -9999 -9999 -9999 -9999 -9999 -9999 -9999 -9999 -9999 -9999 -9999 -9999 -9999 -9999 -9999 -9999 -9999 -9999 -9999 -9999 -9999 -9999 -9999 -9999 -9999 -9999 -9999 -9999 -9999 -9999 -9999 -9999 -9999 -9999 -9999 -9999 -9999 -9999 -9999 -9999 -9999 -9999 -9999 -9999 -9999 -9999 -9999 -9999 -9999 -9999 -9999 -9999 -9999 -9999 -9999 -9999 -9999 -9999 -9999 -9999 -9999 -9999 -9999 -9999 -9999 -9999 -9999 -9999 -9999 -9999 -9999 -9999 -9999 -9999 -9999 -9999 -9999 -9999 -9999 -9999 -9999 -9999 -9999 -9999 -9999 -9999 -9999 -9999 -9999 -9999 -9999 -9999 -9999 -9999 -9999 -9999 -9999 -9999 -9999 -9999 -9999 -9999 -9999 -9999 -9999 -9999 -9999 -9999 -9999 -9999 -9999 -9999 -9999 -9999 -9999 -9999 -9999 -9999 -9999 -9999 -9999 -9999 -9999 -9999
